//X,Y,Z,R,G,B
401915.000,5755893.920,79.410,108,108,56
401914.820,5755893.550,79.550,111,117,51
401914.890,5755893.630,79.510,120,126,61
401914.950,5755893.710,79.470,126,130,66
401915.010,5755893.780,79.470,112,115,51
401915.060,5755893.850,79.450,107,109,52
401915.130,5755893.930,79.400,121,123,66
401914.940,5755893.530,79.610,125,131,68
401915.010,5755893.620,79.530,128,132,70
401915.070,5755893.710,79.480,117,121,56
401915.130,5755893.780,79.470,120,122,61
401915.190,5755893.870,79.410,136,135,78
401915.250,5755893.940,79.400,130,133,75
401915.130,5755893.610,79.580,116,124,63
401915.200,5755893.700,79.510,124,130,70
401915.250,5755893.790,79.450,144,144,86
401915.320,5755893.870,79.430,144,145,86
401915.380,5755893.930,79.440,153,156,93
401915.190,5755893.550,79.580,109,122,58
401915.260,5755893.620,79.570,124,132,71
401915.310,5755893.710,79.510,137,140,79
401915.380,5755893.790,79.450,142,143,80
401915.440,5755893.860,79.440,145,147,80
401915.500,5755893.920,79.460,157,159,88
401915.310,5755893.550,79.620,124,133,68
401915.370,5755893.630,79.580,138,145,83
401915.440,5755893.720,79.480,150,153,89
401915.510,5755893.810,79.440,156,159,86
401915.570,5755893.870,79.440,164,166,92
401915.630,5755893.940,79.420,159,159,87
401915.490,5755893.630,79.600,150,158,91
401915.560,5755893.720,79.530,154,160,85
401915.640,5755893.830,79.410,163,166,90
401915.700,5755893.910,79.350,164,164,90
401915.560,5755893.570,79.580,146,153,85
401915.640,5755893.710,79.380,142,149,77
401915.710,5755893.800,79.330,155,159,86
401915.770,5755893.880,79.310,166,167,94
401915.620,5755893.510,79.580,142,145,83
401915.710,5755893.680,79.330,140,144,81
401915.780,5755893.750,79.310,150,157,89
401915.770,5755893.580,79.410,127,133,68
401912.780,5755893.850,79.440,132,143,77
401912.850,5755893.750,79.520,128,140,74
401912.830,5755893.800,79.430,130,142,75
401912.810,5755893.840,79.340,144,153,88
401912.840,5755893.730,79.370,132,143,72
401912.870,5755893.780,79.330,142,152,83
401913.630,5755893.940,79.350,169,168,95
401913.640,5755894.000,79.290,191,183,115
401913.690,5755893.830,79.420,156,166,95
401913.760,5755893.890,79.430,160,162,93
401913.670,5755893.930,79.250,174,171,103
401913.720,5755893.660,79.520,106,121,63
401913.750,5755893.710,79.480,116,128,66
401913.770,5755893.770,79.440,138,151,82
401913.800,5755893.830,79.400,146,155,87
401913.820,5755893.660,79.490,100,115,56
401913.870,5755893.720,79.470,108,122,54
401913.860,5755893.770,79.400,120,133,58
401913.950,5755893.660,79.500,107,118,55
401913.950,5755893.710,79.420,111,122,49
401914.100,5755893.630,79.600,132,140,76
401914.140,5755893.690,79.570,130,137,70
401914.150,5755893.740,79.520,130,137,71
401914.080,5755893.610,79.430,129,139,74
401914.190,5755893.680,79.490,129,142,75
401914.460,5755893.640,79.580,120,136,68
401914.490,5755893.700,79.560,117,129,63
401914.510,5755893.750,79.500,119,127,63
401914.660,5755893.710,79.610,125,138,73
401914.720,5755893.650,79.600,122,133,67
401914.730,5755893.710,79.540,113,126,63
401914.760,5755893.770,79.510,111,118,55
401914.800,5755893.830,79.490,130,130,64
401914.830,5755893.880,79.450,140,136,72
401914.850,5755893.940,79.400,143,139,74
401914.900,5755894.000,79.390,131,133,64
401914.920,5755893.780,79.560,138,135,75
401914.910,5755893.830,79.460,145,140,84
401914.950,5755893.890,79.450,134,132,75
401915.000,5755893.950,79.450,116,120,60
401915.550,5755893.850,79.500,137,150,80
401915.530,5755893.900,79.410,131,143,76
401915.560,5755893.740,79.510,144,157,80
401915.550,5755893.780,79.430,143,155,80
401915.580,5755893.840,79.390,140,151,79
401915.610,5755893.900,79.340,147,155,80
401915.530,5755893.510,79.610,141,157,88
401915.550,5755893.560,79.570,142,160,90
401915.560,5755893.620,79.500,137,154,83
401915.590,5755893.670,79.470,142,152,79
401915.620,5755893.730,79.430,146,155,82
401915.640,5755893.790,79.380,149,158,87
401915.650,5755893.830,79.310,152,162,88
401915.690,5755893.890,79.290,159,168,91
401915.620,5755893.510,79.580,144,155,89
401915.650,5755893.560,79.540,148,159,92
401915.670,5755893.620,79.490,147,157,88
401915.700,5755893.680,79.450,141,151,83
401915.730,5755893.730,79.410,136,147,81
401915.740,5755893.790,79.350,146,158,87
401915.790,5755893.850,79.330,154,166,90
401915.790,5755893.890,79.250,165,177,102
401915.720,5755893.500,79.540,140,150,81
401915.740,5755893.560,79.490,130,142,69
401915.770,5755893.620,79.460,125,140,67
401915.800,5755893.670,79.420,126,140,71
401915.810,5755893.730,79.350,141,155,87
401910.060,5755894.350,79.080,123,138,49
401910.120,5755894.290,79.080,120,134,57
401910.160,5755894.310,79.010,120,138,57
401910.200,5755894.240,79.100,109,123,51
401910.230,5755894.260,79.040,108,124,48
401910.310,5755894.350,79.050,119,134,58
401910.260,5755894.180,79.110,104,121,54
401910.310,5755894.220,79.070,94,112,46
401910.380,5755894.290,79.070,100,118,50
401910.330,5755894.130,79.120,92,114,48
401910.380,5755894.170,79.080,93,114,50
401910.440,5755894.230,79.070,109,128,65
401910.520,5755894.320,79.110,125,141,70
401910.400,5755894.070,79.130,101,126,62
401910.440,5755894.110,79.080,107,127,64
401910.510,5755894.180,79.090,118,132,70
401910.580,5755894.250,79.100,134,145,76
401910.470,5755894.020,79.150,105,127,65
401910.520,5755894.060,79.100,107,125,65
401910.580,5755894.120,79.100,105,120,59
401910.660,5755894.220,79.130,118,128,58
401910.730,5755894.300,79.160,130,143,72
401910.570,5755894.020,79.220,79,96,42
401910.620,5755894.060,79.180,82,98,43
401910.700,5755894.150,79.230,83,97,42
401910.770,5755894.230,79.250,100,109,49
401910.820,5755894.280,79.230,107,120,55
401910.680,5755894.030,79.340,79,100,47
401910.730,5755894.080,79.320,66,88,35
401910.790,5755894.130,79.300,72,89,35
401910.860,5755894.220,79.330,91,101,48
401910.910,5755894.270,79.310,90,102,48
401910.930,5755894.160,79.330,90,103,49
401910.990,5755894.220,79.330,102,115,65
401911.030,5755894.260,79.300,86,101,48
401911.070,5755894.180,79.370,109,122,68
401911.110,5755894.240,79.360,83,100,48
401911.230,5755894.240,79.350,84,102,38
401911.320,5755894.210,79.400,99,116,48
401911.360,5755894.240,79.360,81,101,34
401911.320,5755894.070,79.390,113,129,59
401911.370,5755894.130,79.380,100,116,47
401911.420,5755894.170,79.340,79,96,36
401911.460,5755894.190,79.270,67,83,27
401911.520,5755894.250,79.270,67,81,26
401911.390,5755894.040,79.430,112,128,58
401911.450,5755894.090,79.420,104,118,47
401911.500,5755894.130,79.380,91,105,39
401911.540,5755894.160,79.320,87,100,34
401911.600,5755894.220,79.310,83,97,33
401911.640,5755894.250,79.270,87,102,37
401911.450,5755893.970,79.410,106,120,48
401911.510,5755894.030,79.410,105,117,44
401911.580,5755894.100,79.430,90,103,34
401911.610,5755894.120,79.350,86,100,31
401911.670,5755894.170,79.340,91,105,36
401911.720,5755894.220,79.310,98,114,44
401911.490,5755893.890,79.470,113,135,59
401911.540,5755893.950,79.470,106,125,52
401911.600,5755894.010,79.470,99,116,44
401911.650,5755894.050,79.430,92,107,36
401911.680,5755894.060,79.370,90,106,34
401911.740,5755894.120,79.350,93,107,36
401911.790,5755894.160,79.320,109,121,48
401911.830,5755894.190,79.260,113,125,55
401911.860,5755894.210,79.180,110,121,49
401911.540,5755893.810,79.440,128,151,70
401911.590,5755893.880,79.460,116,139,60
401911.660,5755893.950,79.460,110,131,53
401911.720,5755894.000,79.450,108,128,50
401911.760,5755894.040,79.410,99,118,43
401911.810,5755894.070,79.360,99,114,39
401911.850,5755894.110,79.310,109,121,43
401911.900,5755894.150,79.270,118,128,52
401911.930,5755894.140,79.180,122,132,58
401911.990,5755894.200,79.170,123,132,62
401911.660,5755893.820,79.460,126,146,67
401911.790,5755893.970,79.490,124,144,64
401911.840,5755894.000,79.440,114,131,54
401911.880,5755894.030,79.400,110,123,45
401911.920,5755894.050,79.330,117,128,46
401911.970,5755894.100,79.290,122,134,52
401912.010,5755894.110,79.220,131,142,63
401912.060,5755894.170,79.200,137,147,77
401912.110,5755894.210,79.170,117,129,65
401911.730,5755893.770,79.480,127,145,66
401911.910,5755893.950,79.460,118,135,53
401911.950,5755893.970,79.400,115,129,48
401911.980,5755893.990,79.320,118,129,49
401912.040,5755894.040,79.300,124,137,60
401912.060,5755894.030,79.180,133,146,71
401912.120,5755894.100,79.200,134,146,75
401912.190,5755894.180,79.210,133,144,77
401911.970,5755893.880,79.450,128,143,59
401912.010,5755893.910,79.390,122,137,53
401912.050,5755893.930,79.330,120,135,57
401912.100,5755893.970,79.300,115,130,58
401912.140,5755894.010,79.250,128,141,71
401912.220,5755894.100,79.290,136,146,78
401912.290,5755894.180,79.320,137,148,81
401912.030,5755893.830,79.460,130,145,69
401912.070,5755893.850,79.390,118,134,57
401912.120,5755893.890,79.360,110,127,54
401912.180,5755893.950,79.360,98,112,46
401912.240,5755894.010,79.340,111,119,54
401912.310,5755894.080,79.360,124,132,66
401912.380,5755894.170,79.400,120,133,66
401912.100,5755893.770,79.470,116,132,61
401912.150,5755893.810,79.430,103,120,49
401912.200,5755893.850,79.400,105,120,54
401912.260,5755893.920,79.400,87,100,40
401912.320,5755893.970,79.390,91,101,38
401912.390,5755894.060,79.430,111,121,52
401912.460,5755894.140,79.450,130,142,73
401912.210,5755893.740,79.430,98,114,44
401912.270,5755893.800,79.410,94,109,45
401912.330,5755893.860,79.410,81,94,36
401912.390,5755893.930,79.420,95,106,41
401912.470,5755894.030,79.480,129,141,67
401912.540,5755894.100,79.490,153,165,91
401912.600,5755894.160,79.470,156,169,102
401912.350,5755893.770,79.460,90,104,42
401912.420,5755893.850,79.480,95,105,48
401912.480,5755893.920,79.500,121,128,62
401912.670,5755894.110,79.490,148,156,85
401912.700,5755894.110,79.400,146,154,87
401912.740,5755894.140,79.340,134,141,72
401912.730,5755894.040,79.470,136,138,76
401912.760,5755894.050,79.390,148,144,82
401912.800,5755894.070,79.330,150,150,89
401912.840,5755894.100,79.270,142,145,80
401912.890,5755894.150,79.250,151,154,82
401912.780,5755893.960,79.450,138,142,80
401912.810,5755893.950,79.340,159,156,92
401912.850,5755893.980,79.280,169,164,100
401912.890,5755894.010,79.230,162,162,100
401912.940,5755894.060,79.200,161,163,95
401912.990,5755894.110,79.190,161,165,93
401912.790,5755893.840,79.470,122,128,65
401912.820,5755893.860,79.390,135,141,77
401912.860,5755893.870,79.320,150,153,85
401912.910,5755893.910,79.280,158,156,89
401912.960,5755893.950,79.240,161,162,94
401913.000,5755894.000,79.210,164,167,95
401913.060,5755894.050,79.190,163,167,97
401913.120,5755894.120,79.200,148,155,84
401912.850,5755893.790,79.460,126,132,63
401912.880,5755893.800,79.380,135,141,75
401912.920,5755893.800,79.290,139,145,79
401912.960,5755893.820,79.230,143,145,81
401913.030,5755893.900,79.250,141,146,78
401913.070,5755893.950,79.230,154,157,87
401913.130,5755894.010,79.220,152,156,90
401913.200,5755894.080,79.220,136,141,76
401912.910,5755893.720,79.450,123,131,62
401912.940,5755893.720,79.350,127,136,71
401912.970,5755893.730,79.260,136,143,78
401913.020,5755893.760,79.220,136,142,80
401913.110,5755893.880,79.300,132,142,80
401913.140,5755893.900,79.240,134,141,78
401913.210,5755893.980,79.240,132,137,75
401913.280,5755894.060,79.280,128,132,70
401913.340,5755894.120,79.270,132,138,74
401913.040,5755893.680,79.280,121,131,71
401913.100,5755893.730,79.260,122,133,73
401913.170,5755893.800,79.280,118,131,73
401913.220,5755893.870,79.290,115,125,68
401913.280,5755893.940,79.290,112,119,60
401913.350,5755894.010,79.300,111,115,54
401913.410,5755894.080,79.300,130,136,71
401913.200,5755893.750,79.390,98,114,56
401913.260,5755893.810,79.390,108,121,64
401913.310,5755893.860,79.350,120,130,74
401913.370,5755893.930,79.370,112,123,62
401913.430,5755893.980,79.340,98,106,46
401913.470,5755894.010,79.290,122,122,57
401913.530,5755894.060,79.270,157,162,87
401913.290,5755893.740,79.480,84,101,48
401913.340,5755893.790,79.440,98,110,54
401913.390,5755893.830,79.410,120,129,67
401913.450,5755893.910,79.430,118,132,63
401913.500,5755893.940,79.380,105,120,55
401913.540,5755893.960,79.310,122,127,58
401913.590,5755894.000,79.270,158,159,83
401913.660,5755894.080,79.300,153,160,84
401913.310,5755893.660,79.550,77,88,44
401913.370,5755893.710,79.520,92,104,56
401913.420,5755893.760,79.490,102,112,58
401913.460,5755893.790,79.440,127,135,71
401913.520,5755893.850,79.430,136,150,77
401913.560,5755893.870,79.370,125,143,67
401913.610,5755893.900,79.320,139,149,77
401913.670,5755893.960,79.310,159,161,92
401913.730,5755894.030,79.330,154,158,87
401913.430,5755893.650,79.520,83,92,47
401913.490,5755893.710,79.510,108,115,61
401913.550,5755893.790,79.540,133,140,78
401913.600,5755893.820,79.490,138,152,81
401913.630,5755893.820,79.380,134,151,70
401913.680,5755893.860,79.350,148,154,77
401913.740,5755893.920,79.350,157,159,93
401913.800,5755893.990,79.350,144,148,81
401913.880,5755894.080,79.400,132,138,68
401913.620,5755893.740,79.560,121,132,74
401913.670,5755893.780,79.520,115,127,63
401913.720,5755893.830,79.490,126,134,65
401913.780,5755893.890,79.490,132,134,65
401913.840,5755893.950,79.480,139,141,73
401913.900,5755894.010,79.480,134,141,75
401913.670,5755893.660,79.520,99,112,55
401913.720,5755893.690,79.480,97,108,49
401913.800,5755893.670,79.540,96,106,50
401914.560,5755893.590,79.570,99,112,45
401914.620,5755893.650,79.570,103,115,49
401914.690,5755893.730,79.600,99,112,49
401914.750,5755893.790,79.580,91,100,40
401914.680,5755893.580,79.560,104,119,57
401914.760,5755893.670,79.600,96,110,48
401914.800,5755893.680,79.520,93,102,41
401914.930,5755893.850,79.580,128,123,66
401914.810,5755893.580,79.560,111,122,61
401915.170,5755893.960,79.560,100,100,45
401914.910,5755893.530,79.470,116,126,62
401915.000,5755893.670,79.580,107,115,56
401915.060,5755893.730,79.590,108,113,56
401915.230,5755893.900,79.560,106,111,54
401915.280,5755893.930,79.510,97,106,52
401915.330,5755893.960,79.450,102,112,55
401915.070,5755893.620,79.600,104,114,53
401915.130,5755893.670,79.590,119,122,64
401915.350,5755893.890,79.540,103,115,57
401915.400,5755893.920,79.490,119,124,61
401915.130,5755893.560,79.610,99,111,56
401915.460,5755893.870,79.500,124,136,70
401915.530,5755893.930,79.500,131,143,76
401915.260,5755893.580,79.620,127,134,75
401915.600,5755893.900,79.520,139,153,85
401915.320,5755893.510,79.600,125,134,70
401915.650,5755893.820,79.500,128,138,69
401915.710,5755893.870,79.470,129,138,68
401915.770,5755893.930,79.460,145,152,80
401915.660,5755893.710,79.520,128,138,69
401915.710,5755893.740,79.470,115,125,61
401915.760,5755893.780,79.430,123,134,67
401915.820,5755893.840,79.430,145,155,83
401915.670,5755893.610,79.560,134,142,75
401915.710,5755893.620,79.490,124,134,68
401915.760,5755893.650,79.430,115,127,56
401915.820,5755893.690,79.390,127,139,65
401915.680,5755893.490,79.580,141,148,81
401915.730,5755893.520,79.530,131,143,73
401915.780,5755893.560,79.490,122,137,66
401915.800,5755893.520,79.420,124,147,81
401915.820,5755893.710,79.300,139,163,101
401915.790,5755893.640,79.380,120,144,85
401915.750,5755893.570,79.450,117,139,83
401915.690,5755893.510,79.450,124,144,89
401915.800,5755893.840,79.260,146,164,99
401915.770,5755893.770,79.360,134,156,93
401915.730,5755893.700,79.430,122,144,86
401915.680,5755893.630,79.440,133,150,95
401915.630,5755893.560,79.480,131,148,90
401915.590,5755893.500,79.550,124,144,85
401915.780,5755893.890,79.400,148,164,95
401915.710,5755893.830,79.380,137,157,91
401915.670,5755893.760,79.450,135,156,94
401915.620,5755893.690,79.470,134,154,89
401915.560,5755893.620,79.460,130,152,88
401915.530,5755893.550,79.570,129,155,93
401915.670,5755893.880,79.460,140,157,91
401915.620,5755893.810,79.500,134,155,91
401915.560,5755893.750,79.490,142,164,98
401915.510,5755893.680,79.520,140,161,100
401915.440,5755893.540,79.640,128,153,98
401915.610,5755893.920,79.480,134,148,86
401915.560,5755893.870,79.530,136,154,95
401915.460,5755893.730,79.560,139,155,98
401915.370,5755893.600,79.610,128,148,96
401915.230,5755893.710,79.590,138,148,99
401915.300,5755893.970,79.490,105,122,73
401915.260,5755893.900,79.540,111,122,79
401915.210,5755893.830,79.580,126,133,86
401915.060,5755893.630,79.610,123,137,86
401914.990,5755893.570,79.580,126,143,92
401915.180,5755893.960,79.510,106,116,68
401915.120,5755893.890,79.480,110,119,71
401915.090,5755893.820,79.550,115,123,76
401915.030,5755893.760,79.560,130,137,89
401914.980,5755893.690,79.590,120,129,79
401914.920,5755893.630,79.560,118,135,81
401914.860,5755893.560,79.550,122,139,84
401915.040,5755893.950,79.460,108,119,70
401915.000,5755893.880,79.500,114,124,75
401914.960,5755893.820,79.530,132,136,88
401914.910,5755893.750,79.570,124,130,82
401914.850,5755893.680,79.540,94,110,59
401914.790,5755893.620,79.530,92,112,57
401914.720,5755893.550,79.510,107,124,69
401914.910,5755893.940,79.440,121,130,75
401914.880,5755893.880,79.480,133,139,84
401914.840,5755893.810,79.540,132,138,88
401914.770,5755893.740,79.510,98,113,62
401914.720,5755893.680,79.520,82,104,49
401914.650,5755893.610,79.500,102,123,65
401914.800,5755894.010,79.290,123,133,74
401914.800,5755893.940,79.440,128,137,78
401914.710,5755893.880,79.330,125,134,78
401914.660,5755893.810,79.380,111,126,72
401914.650,5755893.740,79.500,98,122,66
401914.590,5755893.670,79.520,105,130,69
401914.530,5755893.600,79.510,105,126,66
401914.700,5755894.000,79.330,126,139,77
401914.650,5755893.930,79.360,126,139,80
401914.610,5755893.870,79.400,120,134,76
401914.560,5755893.800,79.420,110,129,72
401914.500,5755893.730,79.430,97,120,58
401914.460,5755893.660,79.490,107,128,69
401914.400,5755893.600,79.490,120,138,82
401914.590,5755893.990,79.390,135,147,83
401914.560,5755893.920,79.450,136,149,87
401914.510,5755893.850,79.480,125,141,83
401914.460,5755893.790,79.500,110,128,70
401914.390,5755893.720,79.480,115,134,77
401914.330,5755893.660,79.470,117,138,79
401914.290,5755893.590,79.510,117,134,78
401914.490,5755893.980,79.460,136,146,87
401914.440,5755893.910,79.470,135,147,89
401914.390,5755893.840,79.490,129,145,86
401914.330,5755893.780,79.490,128,147,84
401914.270,5755893.710,79.490,123,145,79
401914.220,5755893.650,79.510,114,134,74
401914.420,5755894.040,79.440,135,148,89
401914.380,5755893.970,79.480,134,147,87
401914.320,5755893.900,79.490,135,150,91
401914.260,5755893.840,79.480,128,147,84
401914.210,5755893.770,79.490,120,141,76
401914.160,5755893.700,79.510,119,138,79
401914.100,5755893.640,79.510,125,141,87
401914.300,5755894.020,79.450,129,147,85
401914.230,5755893.950,79.410,130,148,85
401914.190,5755893.890,79.450,124,143,82
401914.140,5755893.830,79.500,116,136,77
401914.080,5755893.750,79.470,111,129,71
401914.030,5755893.690,79.490,109,126,68
401913.970,5755893.620,79.490,117,133,77
401914.170,5755894.010,79.420,132,151,89
401914.120,5755893.940,79.450,134,156,95
401914.050,5755893.880,79.420,125,147,90
401913.990,5755893.810,79.420,112,134,76
401913.940,5755893.750,79.440,106,125,69
401913.890,5755893.680,79.450,100,120,62
401913.850,5755893.610,79.500,98,118,63
401914.040,5755894.000,79.400,139,154,97
401913.970,5755893.940,79.370,125,145,88
401913.910,5755893.880,79.360,117,140,86
401913.860,5755893.810,79.390,114,134,79
401913.810,5755893.740,79.420,113,134,76
401913.780,5755893.670,79.480,101,124,68
401913.960,5755894.070,79.360,146,153,99
401913.880,5755894.000,79.310,129,140,88
401913.820,5755893.940,79.280,127,143,94
401913.760,5755893.870,79.300,135,152,98
401913.710,5755893.800,79.320,142,162,99
401913.690,5755893.730,79.410,129,152,92
401913.640,5755893.660,79.440,101,123,69
401913.810,5755894.060,79.300,149,156,97
401913.750,5755894.000,79.280,148,160,104
401913.700,5755893.930,79.300,161,173,116
401913.650,5755893.860,79.330,155,173,108
401913.610,5755893.790,79.390,153,174,110
401913.570,5755893.720,79.420,126,143,88
401913.520,5755893.660,79.460,96,117,63
401913.680,5755894.050,79.280,164,176,111
401913.650,5755893.980,79.360,164,177,111
401913.620,5755893.910,79.430,151,169,104
401913.570,5755893.850,79.460,159,178,119
401913.510,5755893.780,79.460,148,164,110
401913.470,5755893.710,79.480,115,134,84
401913.390,5755893.650,79.430,95,117,70
401913.600,5755894.040,79.410,148,166,97
401913.540,5755893.970,79.390,144,162,101
401913.510,5755893.900,79.470,140,156,99
401913.440,5755893.840,79.450,135,152,96
401913.360,5755893.780,79.370,126,144,95
401913.300,5755893.710,79.350,104,128,81
401913.560,5755894.090,79.480,137,158,92
401913.470,5755894.030,79.370,139,157,99
401913.430,5755893.960,79.440,109,126,71
401913.350,5755893.900,79.360,111,129,77
401913.280,5755893.840,79.330,129,146,97
401913.210,5755893.770,79.290,119,140,92
401913.160,5755893.710,79.300,116,139,90
401913.390,5755894.090,79.340,124,146,85
401913.340,5755894.020,79.370,113,133,78
401913.290,5755893.960,79.390,121,139,87
401913.220,5755893.890,79.350,143,156,104
401913.140,5755893.830,79.270,130,149,94
401913.080,5755893.770,79.270,125,144,88
401913.020,5755893.700,79.280,132,147,89
401913.220,5755894.080,79.220,127,147,88
401913.220,5755894.020,79.360,135,152,94
401913.160,5755893.950,79.360,150,162,102
401913.070,5755893.890,79.260,134,152,90
401913.010,5755893.830,79.250,127,145,84
401912.960,5755893.760,79.280,132,146,87
401912.920,5755893.690,79.330,132,147,87
401913.110,5755894.070,79.250,145,163,98
401913.040,5755894.010,79.230,151,166,101
401912.990,5755893.940,79.230,148,164,98
401912.930,5755893.880,79.230,144,156,95
401912.880,5755893.810,79.250,143,153,96
401912.860,5755893.750,79.340,131,148,88
401913.040,5755894.130,79.240,146,167,98
401912.980,5755894.060,79.250,147,165,101
401912.940,5755894.000,79.270,152,164,102
401912.880,5755893.930,79.260,162,169,111
401912.830,5755893.860,79.290,155,164,108
401912.810,5755893.790,79.390,128,145,90
401912.770,5755893.730,79.450,122,143,91
401912.920,5755894.120,79.260,134,154,92
401912.870,5755894.060,79.260,137,151,94
401912.810,5755893.990,79.250,149,158,101
401912.770,5755893.920,79.320,144,155,98
401912.760,5755893.850,79.420,133,150,93
401912.720,5755893.780,79.460,122,143,92
401912.810,5755894.110,79.280,133,152,93
401912.750,5755894.050,79.280,130,147,89
401912.720,5755893.980,79.340,138,154,97
401912.700,5755893.900,79.450,143,161,104
401912.780,5755894.160,79.360,143,159,98
401912.720,5755894.100,79.360,143,160,101
401912.680,5755894.030,79.420,153,172,113
401912.670,5755894.150,79.400,156,175,113
401912.530,5755893.950,79.500,150,162,96
401912.470,5755893.880,79.490,120,135,76
401912.410,5755893.820,79.490,105,121,68
401912.350,5755893.750,79.470,89,112,62
401912.520,5755894.070,79.480,140,161,88
401912.450,5755894.010,79.450,119,140,75
401912.380,5755893.950,79.430,118,139,79
401912.340,5755893.880,79.470,115,134,78
401912.290,5755893.810,79.490,109,131,76
401912.230,5755893.750,79.470,111,133,74
401912.420,5755894.140,79.410,132,152,89
401912.350,5755894.070,79.380,129,149,90
401912.290,5755894.010,79.350,123,145,86
401912.240,5755893.940,79.380,124,147,87
401912.210,5755893.870,79.450,125,146,86
401912.140,5755893.810,79.430,117,137,76
401912.110,5755893.740,79.490,127,148,84
401912.330,5755894.200,79.350,112,134,76
401912.240,5755894.140,79.250,126,146,88
401912.200,5755894.070,79.300,122,145,85
401912.140,5755894.000,79.300,132,157,94
401912.100,5755893.940,79.350,138,161,96
401912.160,5755894.200,79.210,109,130,74
401912.100,5755894.130,79.220,127,148,90
401912.040,5755894.070,79.220,137,160,97
401912.010,5755894.200,79.160,120,140,79
401911.960,5755894.130,79.190,126,148,85
401911.930,5755894.180,79.280,125,147,83
401911.850,5755894.160,79.390,134,158,95
401911.760,5755894.220,79.320,116,141,77
401911.740,5755894.150,79.420,119,143,80
401911.630,5755894.210,79.300,105,130,67
401911.600,5755894.140,79.370,112,136,71
401911.570,5755894.070,79.430,114,138,76
401911.530,5755894.200,79.370,110,134,73
401911.420,5755894.260,79.260,112,138,79
401911.410,5755894.190,79.380,112,136,80
401911.360,5755894.120,79.390,119,145,86
401911.270,5755894.260,79.210,116,141,80
401911.290,5755894.180,79.390,118,144,83
401911.210,5755894.240,79.340,117,144,80
401911.030,5755894.240,79.220,116,142,77
401910.960,5755894.300,79.210,129,152,80
401910.440,5755894.340,79.000,123,149,82
401910.080,5755894.360,79.180,120,151,70
401910.020,5755894.290,79.190,112,146,69
401909.950,5755894.350,79.170,117,148,75
401909.890,5755894.290,79.180,120,154,72
401909.830,5755894.220,79.180,121,156,78
401909.780,5755894.150,79.190,106,145,68
401909.720,5755894.090,79.180,107,145,72
401909.840,5755894.340,79.210,121,156,77
401909.770,5755894.280,79.180,118,153,72
401909.710,5755894.210,79.190,113,151,74
401909.700,5755894.340,79.190,119,154,77
401909.650,5755894.270,79.190,123,158,85
401909.640,5755894.390,79.200,127,163,87
401909.590,5755894.330,79.200,125,161,84
401909.520,5755894.390,79.210,122,159,82
401909.280,5755894.360,79.210,94,129,61
401909.220,5755894.420,79.230,116,153,89
401908.760,5755894.260,79.260,128,159,94
401908.810,5755894.450,79.270,118,153,91
401908.740,5755894.380,79.240,125,154,87
401908.670,5755894.320,79.220,108,135,70
401908.660,5755894.440,79.220,107,137,76
401908.610,5755894.370,79.230,91,122,59
401908.400,5755894.430,79.210,106,135,73
401908.320,5755894.490,79.170,110,138,76
401907.190,5755894.180,78.890,120,158,83
401907.120,5755894.120,78.870,117,159,86
401907.350,5755894.510,78.900,119,156,76
401907.300,5755894.440,78.910,122,159,80
401907.230,5755894.380,78.890,139,174,95
401907.160,5755894.310,78.850,144,180,99
401907.100,5755894.250,78.840,128,168,86
401907.040,5755894.180,78.840,123,166,85
401907.260,5755894.570,78.860,120,157,75
401907.210,5755894.500,78.880,127,164,84
401907.140,5755894.440,78.850,140,175,95
401907.090,5755894.370,78.860,143,180,98
401907.040,5755894.300,78.860,132,173,86
401906.980,5755894.240,78.860,123,165,81
401906.910,5755894.170,78.840,115,154,79
401907.170,5755894.560,78.910,132,167,88
401907.100,5755894.490,78.900,136,173,93
401907.080,5755894.420,78.950,138,176,94
401907.010,5755894.360,78.930,134,174,89
401906.930,5755894.290,78.890,125,166,85
401906.850,5755894.230,78.860,106,145,74
401906.780,5755894.160,78.840,86,128,61
401907.020,5755894.560,78.880,135,173,94
401907.000,5755894.480,78.920,132,170,90
401906.940,5755894.420,78.920,126,163,84
401906.870,5755894.350,78.900,116,155,83
401906.770,5755894.280,78.840,110,151,83
401906.690,5755894.220,78.790,106,151,82
401906.620,5755894.150,78.770,112,157,84
401906.860,5755894.540,78.810,139,175,97
401906.810,5755894.470,78.820,125,159,87
401906.740,5755894.410,78.790,106,143,76
401906.680,5755894.340,78.780,109,151,82
401906.620,5755894.280,78.780,116,160,89
401906.540,5755894.210,78.750,120,161,87
401906.840,5755894.590,78.890,148,179,102
401906.760,5755894.530,78.840,133,165,93
401906.680,5755894.470,78.800,109,146,74
401906.590,5755894.410,78.740,112,154,78
401906.520,5755894.340,78.730,119,161,85
401906.450,5755894.270,78.700,117,156,83
401906.370,5755894.210,78.680,111,149,79
401906.650,5755894.600,78.770,135,170,92
401906.570,5755894.530,78.730,129,169,88
401906.520,5755894.460,78.750,122,165,82
401906.440,5755894.400,78.710,123,165,84
401906.350,5755894.340,78.660,131,169,91
401906.270,5755894.270,78.630,131,169,93
401906.280,5755894.200,78.740,121,162,88
401906.530,5755894.590,78.780,142,180,96
401906.450,5755894.520,78.740,131,172,86
401906.370,5755894.460,78.700,121,164,84
401906.310,5755894.390,78.700,129,169,91
401906.250,5755894.320,78.710,133,172,94
401906.200,5755894.260,78.710,119,160,85
401906.410,5755894.580,78.790,134,174,92
401906.340,5755894.510,78.770,135,176,94
401906.300,5755894.440,78.800,135,173,95
401906.210,5755894.380,78.740,130,169,90
401906.140,5755894.310,78.730,118,158,83
401906.100,5755894.240,78.760,106,149,74
401906.360,5755894.640,78.810,113,156,79
401906.280,5755894.570,78.790,120,161,83
401906.200,5755894.510,78.750,134,170,93
401906.150,5755894.440,78.760,132,170,93
401906.070,5755894.370,78.720,124,165,88
401906.010,5755894.310,78.730,108,156,79
401905.960,5755894.240,78.740,104,149,77
401906.240,5755894.630,78.820,117,158,87
401906.180,5755894.560,78.830,128,166,91
401906.120,5755894.490,78.820,135,171,94
401906.060,5755894.420,78.830,132,169,93
401905.930,5755894.370,78.700,121,166,94
401905.870,5755894.300,78.690,118,162,92
401906.060,5755894.630,78.730,122,161,88
401905.950,5755894.570,78.660,128,166,90
401905.900,5755894.500,78.660,124,163,86
401905.840,5755894.430,78.660,118,157,82
401905.890,5755894.620,78.670,122,163,89
401905.850,5755894.550,78.690,121,163,88
401905.840,5755894.670,78.680,122,166,94
401905.770,5755894.600,78.670,127,173,98
401905.750,5755894.660,78.750,127,171,98
401905.580,5755894.650,78.690,123,162,88
401905.270,5755894.300,78.850,129,175,88
401894.260,5755895.390,79.510,98,129,60
401894.210,5755895.340,79.520,96,131,59
401894.150,5755895.310,79.560,109,145,69
401894.100,5755895.250,79.570,123,157,79
401894.090,5755895.380,79.580,97,133,53
401894.030,5755895.340,79.620,112,146,68
401893.980,5755895.310,79.660,100,130,57
401893.920,5755895.270,79.700,93,125,58
401893.860,5755895.220,79.700,107,139,73
401893.800,5755895.180,79.740,109,141,77
401893.740,5755895.130,79.760,106,139,78
401893.970,5755895.410,79.630,100,133,64
401893.920,5755895.390,79.690,102,133,64
401893.740,5755895.260,79.760,112,145,82
401893.680,5755895.200,79.770,97,131,73
401893.620,5755895.140,79.770,100,130,72
401893.910,5755895.500,79.660,93,125,59
401893.850,5755895.470,79.710,108,140,72
401893.620,5755895.270,79.790,97,132,71
401893.560,5755895.210,79.790,103,134,73
401893.500,5755895.150,79.790,111,141,81
401893.850,5755895.580,79.690,111,142,76
401893.790,5755895.560,79.750,121,152,88
401893.680,5755895.450,79.770,108,144,84
401893.620,5755895.380,79.770,99,134,75
401893.560,5755895.320,79.770,98,134,75
401893.500,5755895.240,79.750,95,130,69
401893.430,5755895.160,79.730,95,130,71
401893.670,5755895.570,79.770,103,137,77
401893.610,5755895.510,79.780,81,116,58
401893.550,5755895.430,79.760,76,111,54
401893.490,5755895.360,79.750,80,116,60
401893.430,5755895.260,79.700,83,117,60
401893.370,5755895.180,79.670,82,118,60
401893.550,5755895.540,79.740,67,98,45
401893.490,5755895.490,79.750,69,100,48
401893.430,5755895.420,79.750,75,106,51
401893.370,5755895.350,79.740,80,112,53
401893.310,5755895.270,79.710,78,112,53
401893.250,5755895.210,79.720,96,125,67
401893.140,5755895.210,79.890,92,124,66
401893.480,5755895.600,79.740,71,101,49
401893.420,5755895.530,79.740,69,101,47
401893.360,5755895.470,79.730,83,114,57
401893.300,5755895.390,79.720,85,117,56
401893.240,5755895.320,79.700,87,120,63
401893.180,5755895.270,79.720,95,125,71
401893.140,5755895.330,79.880,98,129,71
401893.080,5755895.290,79.910,90,123,65
401893.360,5755895.600,79.750,92,123,62
401893.300,5755895.550,79.770,99,128,63
401893.240,5755895.480,79.760,100,130,68
401893.180,5755895.390,79.720,102,134,77
401893.140,5755895.480,79.920,110,141,86
401893.080,5755895.420,79.930,98,129,73
401893.020,5755895.390,79.970,87,121,66
401893.290,5755895.620,79.690,98,131,63
401893.240,5755895.580,79.720,104,135,64
401893.180,5755895.560,79.780,105,136,72
401893.130,5755895.520,79.810,103,135,76
401893.080,5755895.580,79.980,105,139,79
401893.020,5755895.490,79.940,95,131,69
401892.840,5755895.470,80.010,78,114,60
401892.850,5755895.630,80.060,91,128,70
401892.780,5755895.530,80.020,88,125,71
401892.730,5755895.640,80.090,111,150,92
401892.280,5755895.220,80.200,102,144,95
401892.160,5755895.230,80.210,107,147,89
401892.210,5755895.400,80.200,120,154,104
401892.090,5755895.410,80.210,82,117,70
401891.970,5755895.270,80.190,86,124,72
401892.090,5755895.530,80.210,76,114,66
401892.030,5755895.440,80.180,81,118,70
401891.970,5755895.370,80.160,79,116,69
401891.910,5755895.310,80.160,73,113,59
401891.850,5755895.250,80.170,67,109,50
401891.910,5755895.450,80.200,73,110,58
401891.840,5755895.340,80.130,69,110,54
401891.790,5755895.310,80.160,77,119,63
401891.790,5755895.440,80.180,81,124,71
401891.730,5755895.380,80.190,91,133,80
401891.670,5755895.300,80.160,78,118,62
401891.730,5755895.520,80.210,72,116,63
401891.670,5755895.440,80.180,89,133,80
401891.600,5755895.360,80.170,91,131,77
401891.540,5755895.290,80.150,101,142,93
401891.670,5755895.590,80.230,78,118,64
401891.610,5755895.510,80.200,80,120,63
401891.540,5755895.430,80.180,81,119,64
401891.480,5755895.350,80.150,91,133,82
401891.610,5755895.650,80.230,78,114,64
401891.540,5755895.560,80.190,68,107,58
401891.490,5755895.510,80.200,70,108,57
401891.420,5755895.410,80.160,78,117,68
401891.360,5755895.340,80.140,76,115,64
401891.310,5755895.300,80.170,70,107,59
401891.550,5755895.720,80.240,89,125,71
401891.480,5755895.610,80.170,65,108,54
401891.420,5755895.560,80.190,77,116,64
401891.350,5755895.430,80.100,77,113,63
401891.300,5755895.390,80.130,79,119,66
401891.250,5755895.350,80.160,81,117,65
401891.200,5755895.310,80.200,87,124,74
401891.420,5755895.670,80.190,79,118,66
401891.360,5755895.610,80.180,81,117,69
401891.300,5755895.530,80.160,81,117,67
401891.240,5755895.460,80.150,93,130,78
401891.180,5755895.430,80.190,83,119,67
401891.140,5755895.390,80.220,82,119,69
401891.080,5755895.330,80.220,82,120,64
401891.350,5755895.710,80.180,91,130,79
401891.290,5755895.640,80.150,87,125,76
401891.230,5755895.580,80.160,81,116,68
401891.170,5755895.510,80.150,72,108,61
401891.120,5755895.480,80.190,75,111,62
401891.080,5755895.440,80.220,76,113,62
401890.970,5755895.350,80.270,68,110,58
401891.290,5755895.760,80.150,86,128,76
401891.230,5755895.720,80.190,87,125,76
401891.180,5755895.660,80.190,76,110,62
401891.120,5755895.600,80.190,67,105,59
401891.060,5755895.560,80.220,71,110,61
401891.120,5755895.730,80.200,75,114,62
401891.060,5755895.660,80.200,74,112,65
401891.010,5755895.630,80.240,78,115,68
401890.960,5755895.580,80.250,78,120,72
401890.730,5755895.340,80.260,93,133,77
401891.000,5755895.750,80.240,77,115,65
401890.940,5755895.700,80.250,90,128,79
401890.900,5755895.650,80.270,89,128,81
401890.880,5755895.760,80.260,96,137,83
401890.300,5755895.760,80.280,63,101,50
401890.230,5755895.800,80.260,73,111,60
401890.170,5755895.730,80.240,72,108,62
401890.110,5755895.680,80.260,65,101,57
401890.160,5755895.820,80.190,59,96,50
401890.100,5755895.750,80.190,72,106,56
401890.040,5755895.700,80.210,68,101,53
401889.980,5755895.630,80.200,57,89,46
401889.920,5755895.560,80.190,50,83,44
401889.860,5755895.490,80.180,60,93,54
401889.790,5755895.410,80.150,53,82,44
401890.090,5755895.860,80.180,75,110,56
401890.030,5755895.790,80.180,87,118,61
401889.970,5755895.730,80.180,66,96,49
401889.910,5755895.650,80.160,42,70,35
401889.850,5755895.580,80.160,35,62,32
401889.780,5755895.500,80.120,36,60,29
401889.970,5755895.850,80.180,96,125,68
401889.910,5755895.790,80.180,74,101,50
401889.850,5755895.720,80.170,46,72,33
401889.660,5755895.470,80.090,56,77,38
401889.850,5755895.840,80.170,86,117,59
401889.780,5755895.760,80.150,71,102,50
401889.520,5755895.430,80.040,56,77,40
401889.720,5755895.820,80.160,75,110,54
401889.650,5755895.860,80.130,68,104,42
401889.190,5755895.530,79.940,97,132,75
401889.330,5755895.860,80.050,97,134,80
401889.270,5755895.800,80.060,100,135,79
401889.200,5755895.690,79.990,90,121,65
401889.130,5755895.570,79.920,85,120,61
401889.070,5755895.490,79.880,87,124,66
401889.250,5755895.860,79.970,102,138,85
401889.190,5755895.800,79.980,106,140,87
401889.130,5755895.720,79.950,98,131,77
401889.060,5755895.630,79.920,84,116,59
401889.010,5755895.560,79.900,82,116,61
401888.950,5755895.510,79.920,82,116,65
401889.120,5755895.820,79.920,97,135,79
401889.060,5755895.770,79.930,103,142,87
401889.000,5755895.680,79.900,93,124,67
401888.950,5755895.620,79.910,74,105,48
401888.890,5755895.570,79.920,74,107,54
401888.850,5755895.550,79.980,81,114,66
401888.790,5755895.500,80.000,99,133,82
401889.060,5755895.880,79.920,88,130,72
401889.000,5755895.820,79.920,111,154,98
401888.940,5755895.750,79.910,119,155,93
401888.890,5755895.700,79.940,93,130,67
401888.840,5755895.650,79.950,93,131,72
401888.790,5755895.610,79.990,103,139,86
401888.730,5755895.560,80.000,119,157,106
401888.680,5755895.510,80.020,116,153,100
401888.630,5755895.490,80.070,106,142,86
401888.950,5755895.920,79.990,98,141,83
401888.890,5755895.860,80.000,115,154,92
401888.850,5755895.830,80.040,102,138,76
401888.800,5755895.790,80.060,103,139,81
401888.740,5755895.740,80.080,104,141,86
401888.690,5755895.680,80.080,109,148,98
401888.620,5755895.590,80.060,108,144,89
401888.820,5755895.870,79.940,111,148,89
401888.790,5755895.900,80.060,109,144,84
401888.740,5755895.850,80.080,105,137,82
401888.630,5755895.740,80.090,94,132,79
401888.570,5755895.680,80.100,92,129,71
401888.490,5755895.960,80.070,106,137,81
401888.210,5755895.690,80.130,81,115,65
401888.420,5755895.980,80.020,80,114,59
401888.350,5755895.900,80.000,98,129,72
401888.320,5755895.930,80.120,101,130,76
401888.270,5755895.870,80.130,110,135,87
401888.180,5755895.740,80.030,92,116,67
401888.140,5755895.710,80.070,77,108,56
401888.100,5755895.700,80.140,87,124,71
401888.150,5755895.890,80.150,89,121,69
401888.090,5755895.800,80.120,81,110,61
401887.920,5755895.640,80.160,93,130,82
401887.860,5755895.580,80.160,93,129,79
401888.030,5755895.870,80.140,89,118,71
401887.970,5755895.820,80.150,76,107,62
401887.920,5755895.770,80.170,72,107,60
401887.850,5755895.680,80.130,75,113,64
401887.790,5755895.610,80.110,81,120,69
401887.740,5755895.580,80.170,90,125,77
401887.970,5755895.940,80.150,87,121,75
401887.910,5755895.880,80.150,72,103,60
401887.860,5755895.830,80.160,74,103,57
401887.790,5755895.740,80.130,68,106,55
401887.730,5755895.670,80.120,73,112,65
401887.680,5755895.640,80.160,74,111,65
401887.910,5755896.000,80.150,80,114,64
401887.850,5755895.940,80.150,67,98,53
401887.790,5755895.880,80.160,73,104,58
401887.730,5755895.800,80.130,66,100,50
401887.670,5755895.740,80.130,60,94,52
401887.610,5755895.680,80.130,66,101,62
401887.790,5755896.000,80.160,69,102,48
401887.730,5755895.940,80.160,56,88,42
401887.660,5755895.850,80.130,56,89,45
401887.610,5755895.810,80.150,56,87,47
401887.550,5755895.750,80.150,48,78,48
401887.660,5755895.990,80.140,79,109,59
401887.600,5755895.920,80.130,79,112,63
401887.550,5755895.860,80.140,81,110,64
401887.490,5755895.810,80.150,52,79,46
401887.600,5755896.040,80.140,101,133,80
401887.540,5755895.970,80.120,98,130,73
401887.470,5755895.890,80.100,80,111,61
401887.420,5755895.850,80.120,57,87,54
401887.470,5755896.010,80.110,74,110,56
401887.410,5755895.940,80.100,65,102,51
401887.360,5755895.890,80.120,64,94,57
401887.350,5755896.000,80.100,76,116,67
401887.290,5755895.930,80.090,90,122,77
401887.230,5755896.010,80.120,80,110,68
401915.660,5755893.570,79.450,130,140,74
401915.740,5755893.580,79.520,136,148,83
401915.780,5755893.700,79.440,152,166,94
401915.820,5755893.880,79.260,166,169,99
401915.730,5755893.500,79.460,129,136,68
401915.790,5755893.570,79.460,126,139,72
401911.590,5755894.230,79.340,65,91,40
401911.330,5755894.020,79.430,108,134,70
401911.450,5755894.250,79.400,60,82,40
401911.400,5755894.180,79.390,85,107,57
401911.440,5755894.210,79.200,63,90,38
401911.380,5755894.130,79.180,83,109,54
401911.270,5755894.180,79.390,103,130,66
401911.380,5755894.260,79.190,78,108,46
401911.320,5755894.190,79.170,94,120,65
401911.210,5755894.220,79.350,99,124,65
401911.250,5755894.260,79.190,100,126,68
401911.160,5755894.250,79.290,89,114,60
401911.100,5755894.200,79.320,74,100,47
401911.040,5755894.160,79.370,65,97,47
401911.030,5755894.250,79.310,72,92,47
401910.970,5755894.210,79.360,62,89,45
401910.930,5755894.110,79.280,56,87,49
401910.760,5755893.900,79.250,61,88,48
401910.680,5755893.880,79.350,67,96,48
401910.930,5755894.230,79.280,64,90,42
401910.870,5755894.160,79.280,53,80,39
401910.710,5755893.930,79.210,63,92,48
401910.640,5755893.880,79.230,81,109,59
401910.870,5755894.270,79.240,82,110,52
401910.810,5755894.200,79.240,66,92,43
401910.740,5755894.170,79.300,58,84,37
401910.680,5755894.100,79.300,55,83,38
401910.640,5755894.000,79.230,66,91,46
401910.580,5755893.930,79.220,75,103,55
401910.510,5755893.880,79.260,83,113,64
401910.820,5755894.300,79.190,79,111,47
401910.760,5755894.240,79.190,79,106,48
401910.700,5755894.160,79.170,72,97,44
401910.640,5755894.090,79.160,73,101,51
401910.580,5755894.030,79.170,79,106,57
401910.510,5755893.990,79.230,75,106,53
401910.440,5755893.950,79.280,86,117,62
401910.690,5755894.300,79.190,97,122,64
401910.640,5755894.220,79.160,98,122,64
401910.580,5755894.140,79.150,84,113,61
401910.510,5755894.090,79.180,87,121,70
401910.440,5755894.060,79.230,101,135,76
401910.370,5755894.020,79.300,106,139,79
401910.580,5755894.260,79.150,118,140,84
401910.520,5755894.190,79.130,97,122,68
401910.450,5755894.140,79.170,91,121,64
401910.380,5755894.100,79.220,98,131,68
401910.310,5755894.060,79.280,95,127,64
401910.250,5755894.000,79.290,85,119,58
401910.510,5755894.320,79.140,108,134,79
401910.460,5755894.240,79.110,97,126,72
401910.390,5755894.190,79.150,92,122,62
401910.320,5755894.160,79.210,92,127,63
401910.250,5755894.110,79.260,99,134,73
401910.190,5755894.050,79.260,90,123,65
401910.130,5755893.990,79.280,76,110,56
401910.400,5755894.290,79.090,84,116,58
401910.330,5755894.240,79.130,95,124,63
401910.260,5755894.200,79.170,96,127,62
401910.190,5755894.160,79.240,96,129,67
401910.130,5755894.090,79.220,88,119,61
401910.070,5755894.030,79.250,63,94,40
401910.000,5755893.970,79.260,54,86,37
401909.940,5755893.920,79.280,58,92,41
401910.340,5755894.310,79.030,96,128,64
401910.280,5755894.250,79.040,103,131,69
401910.200,5755894.250,79.160,97,123,62
401910.130,5755894.200,79.200,89,117,52
401910.070,5755894.130,79.200,79,110,46
401910.010,5755894.080,79.210,66,97,40
401909.950,5755894.020,79.220,58,90,39
401909.880,5755893.960,79.240,60,96,43
401910.220,5755894.310,79.040,113,139,70
401910.140,5755894.300,79.130,105,131,61
401910.070,5755894.230,79.150,87,117,45
401910.010,5755894.170,79.160,80,111,44
401909.950,5755894.120,79.170,79,110,47
401909.890,5755894.060,79.190,73,105,44
401909.830,5755893.990,79.180,79,113,55
401910.090,5755894.320,79.070,114,142,66
401910.020,5755894.270,79.100,100,131,52
401909.960,5755894.200,79.100,98,129,55
401909.890,5755894.160,79.140,104,135,64
401909.830,5755894.100,79.160,91,122,55
401909.770,5755894.040,79.170,91,126,62
401909.720,5755893.950,79.120,101,133,65
401909.950,5755894.330,79.100,105,136,55
401909.890,5755894.260,79.100,113,146,66
401909.830,5755894.210,79.130,116,150,71
401909.760,5755894.160,79.150,108,142,68
401909.700,5755894.090,79.150,100,136,64
401909.620,5755894.100,79.280,108,140,66
401909.560,5755894.030,79.290,113,144,75
401909.760,5755894.270,79.130,111,147,68
401909.700,5755894.200,79.130,110,146,65
401909.630,5755894.180,79.200,107,143,59
401909.570,5755894.120,79.220,109,143,60
401909.510,5755894.050,79.210,112,145,66
401909.450,5755894.020,79.280,115,151,80
401909.680,5755894.390,79.240,111,146,69
401909.620,5755894.310,79.220,114,149,67
401909.560,5755894.240,79.210,110,145,61
401909.500,5755894.180,79.220,106,142,55
401909.440,5755894.120,79.230,117,153,67
401909.380,5755894.080,79.270,106,143,65
401909.550,5755894.370,79.220,115,152,71
401909.490,5755894.320,79.240,111,150,64
401909.430,5755894.250,79.230,108,145,61
401909.430,5755894.370,79.230,105,147,66
401908.630,5755894.050,79.290,98,132,74
401908.620,5755894.160,79.280,81,118,56
401908.570,5755894.070,79.230,109,149,87
401908.630,5755894.250,79.210,77,105,45
401908.570,5755894.180,79.200,79,111,51
401908.520,5755894.100,79.170,87,126,64
401908.460,5755894.020,79.130,106,148,81
401908.680,5755894.460,79.250,82,114,47
401908.560,5755894.320,79.220,67,99,38
401908.500,5755894.250,79.220,73,106,45
401908.450,5755894.170,79.190,77,112,54
401908.400,5755894.070,79.110,97,135,68
401908.320,5755894.060,79.230,111,148,70
401908.560,5755894.440,79.210,61,93,30
401908.500,5755894.360,79.190,66,100,36
401908.450,5755894.280,79.160,73,108,40
401908.380,5755894.220,79.170,77,110,48
401908.320,5755894.160,79.180,94,124,53
401908.260,5755894.110,79.210,108,140,61
401908.190,5755894.070,79.250,121,155,67
401908.440,5755894.430,79.200,85,117,48
401908.380,5755894.330,79.130,90,121,48
401908.320,5755894.270,79.150,100,125,57
401908.260,5755894.210,79.160,104,129,53
401908.190,5755894.170,79.200,108,139,55
401908.130,5755894.110,79.220,106,141,54
401908.070,5755894.060,79.240,98,133,53
401908.370,5755894.480,79.190,100,130,54
401908.310,5755894.410,79.170,100,130,49
401908.260,5755894.340,79.160,116,138,65
401908.200,5755894.270,79.150,112,136,52
401908.130,5755894.220,79.190,102,133,45
401908.070,5755894.150,79.180,86,119,35
401908.010,5755894.100,79.220,91,127,48
401908.250,5755894.470,79.170,98,129,46
401908.190,5755894.400,79.160,105,132,54
401908.140,5755894.300,79.100,97,124,39
401908.070,5755894.260,79.150,80,111,30
401908.010,5755894.210,79.170,78,111,31
401908.080,5755894.320,79.030,96,126,45
401908.020,5755894.280,79.070,69,100,25
401907.950,5755894.240,79.110,77,110,36
401907.880,5755894.200,79.170,93,128,50
401908.020,5755894.360,79.010,108,142,63
401907.950,5755894.320,79.060,91,124,46
401907.880,5755894.290,79.110,90,123,50
401908.020,5755894.480,78.980,88,128,47
401907.950,5755894.420,79.010,103,141,62
401907.890,5755894.380,79.050,97,133,54
401907.820,5755894.340,79.100,102,138,66
401907.890,5755894.480,79.000,98,131,54
401907.820,5755894.430,79.040,94,125,52
401907.760,5755894.400,79.090,95,130,58
401907.760,5755894.480,79.010,97,128,53
401907.700,5755894.430,79.050,91,125,51
401907.630,5755894.380,79.080,86,120,49
401907.580,5755894.300,79.060,80,114,47
401907.520,5755894.230,79.040,72,109,41
401907.470,5755894.130,78.990,78,114,47
401907.700,5755894.530,79.000,93,128,52
401907.630,5755894.490,79.050,84,118,43
401907.570,5755894.430,79.060,84,116,47
401907.510,5755894.340,79.020,79,106,45
401907.460,5755894.260,78.990,75,105,43
401907.400,5755894.170,78.950,80,116,50
401907.350,5755894.100,78.940,82,119,47
401907.570,5755894.540,79.020,100,130,51
401907.510,5755894.460,78.990,96,128,51
401907.450,5755894.380,78.980,76,107,39
401907.400,5755894.290,78.930,69,100,37
401907.340,5755894.220,78.920,75,107,41
401907.290,5755894.160,78.930,81,117,44
401907.450,5755894.500,78.960,97,133,54
401907.390,5755894.440,78.980,87,123,50
401907.330,5755894.340,78.920,89,125,52
401907.270,5755894.290,78.950,98,134,59
401907.220,5755894.220,78.930,96,133,54
401907.160,5755894.150,78.930,95,137,50
401907.380,5755894.560,78.950,101,136,52
401907.330,5755894.480,78.940,107,140,62
401907.270,5755894.410,78.920,105,142,62
401907.210,5755894.350,78.930,113,149,69
401907.160,5755894.280,78.940,109,144,60
401907.090,5755894.220,78.940,106,147,54
401907.030,5755894.150,78.940,112,153,61
401907.250,5755894.570,78.980,114,145,66
401907.200,5755894.470,78.930,113,149,67
401907.140,5755894.420,78.970,129,163,81
401907.090,5755894.350,78.950,130,164,80
401907.030,5755894.290,78.950,119,159,67
401906.970,5755894.210,78.930,113,154,67
401906.910,5755894.130,78.910,98,140,62
401907.070,5755894.480,78.960,125,161,80
401907.020,5755894.420,78.970,124,158,77
401906.960,5755894.350,78.960,112,149,65
401906.900,5755894.280,78.950,93,133,54
401906.850,5755894.190,78.900,73,117,43
401907.010,5755894.540,78.960,119,155,72
401906.840,5755894.310,78.900,69,110,36
401906.790,5755894.200,78.810,67,108,34
401906.710,5755894.310,78.920,76,115,36
401906.660,5755894.210,78.860,67,108,28
401906.590,5755894.290,78.900,77,120,34
401906.530,5755894.190,78.830,84,128,47
401906.590,5755894.370,78.810,96,136,42
401906.530,5755894.300,78.790,88,129,40
401906.470,5755894.220,78.760,70,110,36
401906.460,5755894.360,78.790,106,142,50
401906.400,5755894.280,78.780,85,117,41
401906.350,5755894.200,78.750,82,114,49
401906.400,5755894.420,78.790,113,151,60
401906.340,5755894.340,78.760,108,140,62
401906.280,5755894.260,78.730,104,136,64
401906.220,5755894.190,78.720,109,143,67
401906.450,5755894.620,78.800,111,157,62
401906.390,5755894.540,78.790,102,146,47
401906.330,5755894.460,78.750,109,149,59
401906.270,5755894.410,78.780,112,147,67
401906.210,5755894.330,78.750,108,142,63
401906.150,5755894.260,78.740,85,121,42
401906.330,5755894.590,78.760,100,144,57
401906.270,5755894.510,78.740,110,150,67
401906.210,5755894.450,78.740,110,150,64
