//X,Y,Z,R,G,B
401917.470,5755895.020,79.190,183,185,110
401916.970,5755894.320,79.250,210,192,122
401917.030,5755894.390,79.250,206,192,124
401917.070,5755894.440,79.220,194,184,114
401917.120,5755894.500,79.200,184,180,102
401917.170,5755894.560,79.180,176,175,92
401917.220,5755894.620,79.160,176,176,94
401917.260,5755894.680,79.130,191,184,109
401917.310,5755894.740,79.110,207,199,127
401917.370,5755894.810,79.110,202,202,129
401917.460,5755894.890,79.170,191,193,119
401916.950,5755894.190,79.210,212,196,132
401917.020,5755894.260,79.230,216,199,135
401917.080,5755894.320,79.230,210,198,135
401917.130,5755894.380,79.210,201,191,122
401917.180,5755894.440,79.190,196,187,111
401917.230,5755894.500,79.170,189,183,104
401917.280,5755894.560,79.150,182,179,102
401917.310,5755894.620,79.120,193,186,113
401917.360,5755894.680,79.100,207,197,128
401917.420,5755894.740,79.080,203,197,130
401916.910,5755894.000,79.240,189,181,112
401916.960,5755894.060,79.220,204,193,125
401917.010,5755894.120,79.200,207,195,131
401917.070,5755894.190,79.200,213,200,136
401917.140,5755894.260,79.220,211,198,135
401917.180,5755894.310,79.190,210,196,132
401917.220,5755894.370,79.160,202,189,122
401917.290,5755894.440,79.160,190,181,111
401917.350,5755894.500,79.160,189,181,108
401917.380,5755894.560,79.130,199,188,118
401917.420,5755894.610,79.100,210,196,132
401917.490,5755894.680,79.090,201,190,126
401916.900,5755893.870,79.220,193,186,123
401916.950,5755893.930,79.200,200,193,127
401917.000,5755893.990,79.180,203,195,128
401917.060,5755894.060,79.180,204,194,131
401917.120,5755894.120,79.170,213,198,136
401917.170,5755894.180,79.160,219,203,141
401917.230,5755894.240,79.150,212,197,134
401917.290,5755894.310,79.150,207,193,130
401917.350,5755894.370,79.160,202,193,128
401917.410,5755894.440,79.160,202,191,125
401917.450,5755894.500,79.140,207,193,129
401916.870,5755893.690,79.260,194,188,117
401916.920,5755893.750,79.240,196,190,122
401916.970,5755893.820,79.230,190,185,118
401917.030,5755893.880,79.220,195,190,120
401917.090,5755893.940,79.220,205,197,129
401917.150,5755894.000,79.220,209,197,132
401917.210,5755894.070,79.220,221,204,140
401917.250,5755894.120,79.180,222,205,143
401917.300,5755894.190,79.170,216,201,139
401917.350,5755894.250,79.160,210,198,136
401917.410,5755894.310,79.150,201,193,130
401916.830,5755893.510,79.270,170,174,87
401916.890,5755893.570,79.270,187,186,104
401916.930,5755893.630,79.260,190,188,113
401916.980,5755893.690,79.240,178,179,109
401917.030,5755893.750,79.220,167,167,99
401917.080,5755893.810,79.200,187,182,110
401917.170,5755893.890,79.250,209,200,127
401917.230,5755893.950,79.250,218,205,133
401917.280,5755894.010,79.240,222,206,138
401917.300,5755894.060,79.150,220,204,141
401917.350,5755894.120,79.150,205,193,132
401917.410,5755894.180,79.140,196,187,124
401916.830,5755893.390,79.280,149,160,75
401916.890,5755893.450,79.260,165,168,82
401916.950,5755893.520,79.270,181,180,97
401916.990,5755893.580,79.250,181,183,107
401917.040,5755893.640,79.240,165,172,102
401917.090,5755893.700,79.220,160,166,95
401917.150,5755893.760,79.210,176,178,104
401917.220,5755893.830,79.220,192,191,116
401917.280,5755893.900,79.230,199,195,119
401917.330,5755893.960,79.210,201,194,122
401917.360,5755894.000,79.160,200,190,125
401916.810,5755893.220,79.340,124,141,61
401916.850,5755893.270,79.300,139,153,69
401916.900,5755893.330,79.290,144,156,75
401916.970,5755893.400,79.300,157,160,76
401917.020,5755893.460,79.280,183,183,98
401917.050,5755893.520,79.250,184,189,110
401917.110,5755893.580,79.240,168,179,104
401917.170,5755893.640,79.240,171,180,103
401917.220,5755893.700,79.220,172,181,103
401917.270,5755893.760,79.200,171,180,103
401917.320,5755893.820,79.180,180,183,107
401916.750,5755893.000,79.440,114,124,59
401916.790,5755893.050,79.410,121,134,57
401916.830,5755893.110,79.380,124,141,64
401916.880,5755893.160,79.350,113,130,60
401916.920,5755893.220,79.320,126,137,59
401916.950,5755893.260,79.260,142,151,71
401917.010,5755893.330,79.260,161,162,75
401917.070,5755893.390,79.250,182,180,91
401917.130,5755893.460,79.260,190,193,108
401917.180,5755893.520,79.260,179,190,107
401917.230,5755893.580,79.240,177,189,106
401917.290,5755893.640,79.220,177,189,106
401917.340,5755893.700,79.210,179,189,108
401916.750,5755892.840,79.530,103,107,51
401916.770,5755892.880,79.460,91,100,45
401916.810,5755892.940,79.440,96,108,45
401916.850,5755892.990,79.400,121,134,57
401916.890,5755893.040,79.360,138,152,73
401916.950,5755893.100,79.360,136,149,72
401917.000,5755893.170,79.350,146,153,71
401917.020,5755893.210,79.280,155,161,79
401917.080,5755893.270,79.270,174,171,87
401917.130,5755893.330,79.250,191,185,99
401917.170,5755893.390,79.230,189,187,101
401917.230,5755893.460,79.230,184,191,104
401917.290,5755893.520,79.230,182,194,106
401916.830,5755892.820,79.460,90,105,40
401916.870,5755892.870,79.430,92,105,40
401916.920,5755892.930,79.400,116,128,52
401916.960,5755892.980,79.380,136,149,69
401917.020,5755893.050,79.370,143,158,76
401917.120,5755893.160,79.330,157,163,81
401917.170,5755893.220,79.310,171,169,90
401917.210,5755893.280,79.260,176,173,92
401917.240,5755893.330,79.240,177,175,91
401917.290,5755893.390,79.220,188,189,102
401916.740,5755892.550,79.600,155,163,90
401916.900,5755892.760,79.470,123,138,59
401916.950,5755892.820,79.440,118,131,54
401916.990,5755892.870,79.410,113,126,50
401917.030,5755892.930,79.380,114,127,52
401917.090,5755892.990,79.380,130,143,64
401917.190,5755893.110,79.340,159,162,82
401917.240,5755893.170,79.330,173,169,90
401916.790,5755892.480,79.570,154,157,86
401916.860,5755892.550,79.590,156,166,90
401916.940,5755892.650,79.520,157,173,88
401916.970,5755892.700,79.470,149,164,80
401917.010,5755892.750,79.440,142,157,73
401917.050,5755892.810,79.410,135,149,70
401917.100,5755892.870,79.390,131,145,69
401917.150,5755892.930,79.370,132,145,70
401916.830,5755892.410,79.540,156,154,88
401916.890,5755892.470,79.530,152,156,88
401916.950,5755892.540,79.540,145,152,80
401916.990,5755892.590,79.500,155,161,83
401917.030,5755892.640,79.470,155,161,82
401917.070,5755892.690,79.440,148,158,76
401917.120,5755892.750,79.420,146,161,82
401917.170,5755892.810,79.400,138,155,76
401916.920,5755892.360,79.580,147,144,76
401916.940,5755892.400,79.520,153,150,86
401917.000,5755892.460,79.510,138,140,76
401917.040,5755892.520,79.480,138,137,67
401917.090,5755892.580,79.460,148,145,75
401917.130,5755892.630,79.420,156,154,78
401917.170,5755892.690,79.400,159,163,86
401916.610,5755891.890,79.650,157,159,87
401916.890,5755892.190,79.620,137,138,71
401916.930,5755892.230,79.580,138,135,67
401916.950,5755892.280,79.520,144,139,72
401916.980,5755892.330,79.470,157,148,85
401917.030,5755892.390,79.460,151,147,87
401917.080,5755892.450,79.450,135,134,71
401917.130,5755892.510,79.430,128,126,61
401916.600,5755891.750,79.640,168,171,92
401916.660,5755891.810,79.630,162,166,84
401916.900,5755892.070,79.620,137,138,73
401916.920,5755892.110,79.550,145,144,78
401916.980,5755892.180,79.560,146,144,77
401917.020,5755892.230,79.510,150,148,79
401917.060,5755892.280,79.500,146,145,79
401917.110,5755892.330,79.480,140,139,74
401916.580,5755891.610,79.580,163,171,86
401916.640,5755891.680,79.590,159,168,83
401916.690,5755891.740,79.580,164,171,87
401916.760,5755891.810,79.590,164,169,83
401916.890,5755891.940,79.600,140,146,75
401916.920,5755891.990,79.550,151,155,86
401916.960,5755892.040,79.520,143,150,77
401917.000,5755892.090,79.480,133,141,68
401917.050,5755892.150,79.460,128,137,68
401916.530,5755891.460,79.500,150,163,77
401916.600,5755891.530,79.520,156,169,83
401916.670,5755891.600,79.530,155,167,83
401916.740,5755891.660,79.540,164,175,90
401916.820,5755891.740,79.590,159,172,86
401916.520,5755891.320,79.470,158,168,86
401916.570,5755891.380,79.460,150,160,77
401916.630,5755891.450,79.460,152,166,81
401916.700,5755891.520,79.480,149,166,81
401916.780,5755891.590,79.510,159,173,88
401916.870,5755891.670,79.550,162,177,88
401916.970,5755891.760,79.620,146,160,76
401916.500,5755891.180,79.430,162,172,84
401916.560,5755891.250,79.440,171,176,93
401916.630,5755891.320,79.450,151,159,78
401916.690,5755891.380,79.450,142,158,72
401916.750,5755891.450,79.460,139,159,70
401916.830,5755891.520,79.490,148,164,78
401916.930,5755891.610,79.550,157,171,83
401916.490,5755891.050,79.410,176,182,98
401916.550,5755891.110,79.400,179,184,99
401916.600,5755891.170,79.390,182,186,101
401916.660,5755891.240,79.400,162,174,90
401916.710,5755891.300,79.380,142,161,73
401916.790,5755891.370,79.420,133,153,64
401916.870,5755891.450,79.450,144,161,72
401916.950,5755891.530,79.490,148,164,76
401916.450,5755890.870,79.420,170,172,91
401916.490,5755890.920,79.400,175,177,96
401916.530,5755890.970,79.360,184,187,105
401916.580,5755891.030,79.340,192,194,112
401916.610,5755891.080,79.310,193,195,112
401916.670,5755891.150,79.310,180,188,103
401916.730,5755891.210,79.310,162,176,87
401916.810,5755891.290,79.340,149,167,75
401916.890,5755891.360,79.380,141,160,71
401916.990,5755891.450,79.430,138,156,71
401916.440,5755890.730,79.400,162,164,84
401916.480,5755890.790,79.380,164,167,91
401916.560,5755890.860,79.400,163,168,95
401916.580,5755890.900,79.340,164,170,94
401916.620,5755890.950,79.300,172,178,101
401916.680,5755891.010,79.290,180,183,110
401916.720,5755891.070,79.280,172,177,99
401916.770,5755891.130,79.270,166,170,91
401916.840,5755891.200,79.280,162,170,86
401916.910,5755891.280,79.300,143,159,72
401916.370,5755890.510,79.490,164,168,90
401916.410,5755890.570,79.470,151,160,83
401916.470,5755890.630,79.460,144,154,79
401916.510,5755890.680,79.420,142,149,75
401916.540,5755890.720,79.370,139,147,75
401916.590,5755890.780,79.350,131,142,73
401916.640,5755890.840,79.330,129,141,68
401916.680,5755890.890,79.300,134,145,74
401916.740,5755890.950,79.290,135,143,78
401916.780,5755891.010,79.280,130,138,73
401916.830,5755891.070,79.260,122,129,62
401916.370,5755890.360,79.590,141,154,74
401916.410,5755890.410,79.550,144,153,75
401916.490,5755890.510,79.480,148,158,76
401916.540,5755890.570,79.460,151,162,85
401916.590,5755890.620,79.430,139,149,76
401916.620,5755890.670,79.390,130,139,69
401916.680,5755890.730,79.380,124,136,66
401916.730,5755890.790,79.370,120,132,61
401916.790,5755890.860,79.360,117,128,61
401916.850,5755890.920,79.370,113,125,57
401916.910,5755890.990,79.390,108,119,52
401916.320,5755890.170,79.590,149,152,79
401916.390,5755890.240,79.610,146,151,75
401916.430,5755890.300,79.580,146,152,76
401916.520,5755890.400,79.530,150,158,78
401916.550,5755890.450,79.480,150,160,75
401916.590,5755890.500,79.440,158,168,86
401916.640,5755890.550,79.420,157,168,89
401916.690,5755890.610,79.390,150,160,84
401916.750,5755890.680,79.400,139,149,75
401916.810,5755890.740,79.400,134,143,68
401916.860,5755890.800,79.380,129,140,65
401916.350,5755890.060,79.620,143,149,78
401916.380,5755890.120,79.600,145,148,75
401916.430,5755890.170,79.570,152,151,79
401916.470,5755890.220,79.540,156,154,83
401916.520,5755890.280,79.530,170,166,93
401916.580,5755890.340,79.520,173,173,97
401916.620,5755890.390,79.480,170,174,93
401916.660,5755890.440,79.450,167,173,90
401916.710,5755890.500,79.430,170,177,94
401916.790,5755890.580,79.460,168,176,94
401916.320,5755889.890,79.660,156,167,94
401916.340,5755889.930,79.600,154,164,90
401916.420,5755890.000,79.620,146,154,81
401916.460,5755890.060,79.610,144,150,77
401916.510,5755890.120,79.600,144,147,77
401916.550,5755890.170,79.560,150,148,80
401916.590,5755890.220,79.540,161,157,88
401916.640,5755890.280,79.520,159,159,88
401916.690,5755890.340,79.500,159,160,85
401916.730,5755890.390,79.470,169,170,90
401916.780,5755890.440,79.450,183,185,103
401916.840,5755890.510,79.430,182,186,102
401916.480,5755889.950,79.620,151,165,86
401916.500,5755889.990,79.580,148,162,83
401916.550,5755890.050,79.570,149,159,83
401916.600,5755890.100,79.540,151,155,80
401916.650,5755890.160,79.520,159,160,85
401916.710,5755890.220,79.530,164,165,94
401916.760,5755890.280,79.510,161,164,93
401916.810,5755890.330,79.480,166,169,94
401916.530,5755889.880,79.600,146,166,83
401916.550,5755889.930,79.550,148,166,79
401916.590,5755889.980,79.520,151,166,79
401916.620,5755890.010,79.470,145,157,74
401916.690,5755890.090,79.490,146,153,72
401916.750,5755890.150,79.480,161,166,90
401916.610,5755889.860,79.540,137,155,71
401916.630,5755889.900,79.490,141,154,69
401916.660,5755889.940,79.430,151,158,77
401916.720,5755890.010,79.430,147,155,77
401916.770,5755890.060,79.400,153,160,88
401916.680,5755889.810,79.550,127,142,68
401916.710,5755889.850,79.510,135,144,72
401916.740,5755889.890,79.450,152,153,83
401912.710,5755866.020,80.330,115,136,79
401912.770,5755866.090,80.330,104,132,70
401912.630,5755865.730,80.220,90,122,62
401912.660,5755865.790,80.250,104,137,82
401912.720,5755865.900,80.320,116,140,89
401912.800,5755865.970,80.300,131,144,92
401912.670,5755865.720,80.320,97,130,78
401912.780,5755865.670,80.260,95,128,68
401912.850,5755865.670,80.330,120,159,96
401913.050,5755868.360,80.260,106,137,73
401912.700,5755866.270,80.300,79,109,54
401912.750,5755866.310,80.340,91,123,62
401912.690,5755866.110,80.360,88,107,52
401912.770,5755866.210,80.310,63,90,39
401912.820,5755866.270,80.300,73,106,48
401912.860,5755866.300,80.360,89,124,61
401912.640,5755865.930,80.360,109,137,74
401912.770,5755866.080,80.320,97,121,61
401912.840,5755866.160,80.280,71,99,45
401912.910,5755866.250,80.240,72,106,49
401912.930,5755866.260,80.340,92,127,64
401912.590,5755865.770,80.190,92,129,68
401912.610,5755865.780,80.290,94,129,74
401912.660,5755865.820,80.330,106,138,80
401912.710,5755865.880,80.350,100,129,69
401912.760,5755865.940,80.360,86,114,54
401912.830,5755866.010,80.330,95,126,60
401912.900,5755866.100,80.290,67,97,35
401912.990,5755866.220,80.200,66,100,42
401913.010,5755866.230,80.290,99,133,72
401912.650,5755865.700,80.220,85,119,61
401912.690,5755865.730,80.270,86,120,64
401912.730,5755865.770,80.320,89,121,63
401912.890,5755865.960,80.330,89,120,56
401912.960,5755866.030,80.310,87,119,49
401913.060,5755866.170,80.170,98,132,65
401913.100,5755866.200,80.250,104,135,69
401913.130,5755866.230,80.300,97,123,65
401912.760,5755865.690,80.240,100,132,69
401912.790,5755865.720,80.320,99,129,70
401912.950,5755865.900,80.340,94,113,57
401913.090,5755866.050,80.290,88,118,56
401912.710,5755866.380,80.310,85,121,61
401912.670,5755866.230,80.260,89,112,51
401912.730,5755866.290,80.270,81,112,58
401912.780,5755866.330,80.290,90,127,65
401912.830,5755866.390,80.310,100,137,71
401912.870,5755866.410,80.380,112,147,85
401912.690,5755866.140,80.210,112,138,76
401912.740,5755866.200,80.220,88,110,53
401912.800,5755866.270,80.220,69,96,45
401912.850,5755866.300,80.260,75,109,52
401912.900,5755866.350,80.280,85,120,56
401912.940,5755866.370,80.350,95,131,73
401912.650,5755865.980,80.180,109,142,82
401912.700,5755866.040,80.190,101,132,72
401912.760,5755866.090,80.210,98,126,67
401912.810,5755866.160,80.200,88,115,59
401912.880,5755866.240,80.170,70,100,46
401912.910,5755866.230,80.280,76,111,52
401912.970,5755866.300,80.280,92,129,63
401913.010,5755866.310,80.350,103,137,75
401912.590,5755865.770,80.200,99,133,71
401912.640,5755865.790,80.270,101,136,79
401912.790,5755865.930,80.360,101,126,65
401912.870,5755866.060,80.260,97,126,66
401912.930,5755866.140,80.240,70,101,41
401912.990,5755866.210,80.230,71,105,46
401913.040,5755866.270,80.240,99,135,70
401913.080,5755866.270,80.330,117,147,84
401912.660,5755865.710,80.210,95,128,69
401912.920,5755865.950,80.330,93,120,64
401912.980,5755866.050,80.290,95,124,64
401913.050,5755866.140,80.250,102,134,66
401913.100,5755866.190,80.270,105,136,67
401913.040,5755865.970,80.320,85,116,57
401913.120,5755866.090,80.230,92,126,62
401912.970,5755866.040,80.340,90,124,64
401912.800,5755865.840,80.320,101,135,78
401913.020,5755866.220,80.340,99,137,70
401912.870,5755866.040,80.130,103,131,71
401912.810,5755865.970,80.210,122,150,93
401912.740,5755865.900,80.310,123,155,98
401912.790,5755866.090,80.310,113,145,85
401912.740,5755866.030,80.200,123,154,94
401912.670,5755865.960,80.320,137,167,107
401912.610,5755865.890,80.360,140,171,114
401912.720,5755866.140,80.330,96,129,72
401912.680,5755866.080,80.220,113,146,82
401913.440,5755868.250,80.220,80,120,66
401913.380,5755868.180,80.240,78,118,58
401913.320,5755868.110,80.280,87,126,62
401913.430,5755868.370,80.210,91,129,75
401913.380,5755868.310,80.210,92,131,72
401913.310,5755868.240,80.240,92,133,70
401913.260,5755868.180,80.240,101,139,75
401913.490,5755868.570,80.160,75,116,63
401913.430,5755868.500,80.150,77,120,64
401913.380,5755868.440,80.160,85,127,68
401913.320,5755868.370,80.150,117,153,90
401913.260,5755868.310,80.160,120,158,91
401913.200,5755868.240,80.190,116,155,89
401913.130,5755868.170,80.240,120,157,92
401913.480,5755868.690,80.150,84,122,67
401913.430,5755868.620,80.160,66,107,52
401913.370,5755868.560,80.160,95,137,74
401913.310,5755868.490,80.170,109,149,84
401913.250,5755868.430,80.160,133,168,101
401913.190,5755868.360,80.170,140,174,101
401913.140,5755868.300,80.180,115,152,83
401913.080,5755868.230,80.190,93,131,70
401913.020,5755868.170,80.200,83,121,62
401913.530,5755868.870,80.150,92,127,66
401913.480,5755868.810,80.150,107,142,82
401913.420,5755868.750,80.130,111,150,89
401913.360,5755868.680,80.130,103,143,81
401913.310,5755868.620,80.140,112,152,82
401913.250,5755868.550,80.150,105,144,76
401913.190,5755868.490,80.160,115,151,83
401913.130,5755868.420,80.160,128,163,95
401913.080,5755868.360,80.160,119,156,89
401913.020,5755868.290,80.150,113,150,84
401913.560,5755869.050,80.250,93,132,74
401913.510,5755868.990,80.190,83,121,63
401913.470,5755868.930,80.170,97,135,73
401913.410,5755868.870,80.150,94,132,72
401913.360,5755868.800,80.130,97,135,73
401913.300,5755868.740,80.120,114,152,85
401913.240,5755868.670,80.140,120,157,86
401913.180,5755868.610,80.150,112,148,83
401913.120,5755868.540,80.180,108,145,85
401913.060,5755868.480,80.180,113,150,92
401913.010,5755868.410,80.170,119,153,92
401913.600,5755869.220,80.290,80,121,64
401913.550,5755869.160,80.260,82,122,60
401913.490,5755869.100,80.260,100,140,78
401913.440,5755869.050,80.200,119,158,94
401913.400,5755868.980,80.180,128,166,98
401913.350,5755868.920,80.160,105,144,80
401913.290,5755868.860,80.140,84,123,59
401913.240,5755868.800,80.140,100,138,64
401913.170,5755868.730,80.170,112,151,78
401913.110,5755868.660,80.180,120,157,90
401913.050,5755868.590,80.240,130,167,99
401913.590,5755869.340,80.320,89,128,73
401913.540,5755869.280,80.290,95,134,77
401913.480,5755869.220,80.270,114,153,88
401913.430,5755869.160,80.250,130,170,103
401913.380,5755869.100,80.210,118,158,93
401913.330,5755869.040,80.200,112,150,87
401913.280,5755868.980,80.190,112,151,83
401913.220,5755868.910,80.190,115,155,83
401913.160,5755868.840,80.220,117,159,82
401913.090,5755868.760,80.320,113,156,81
401913.470,5755869.340,80.290,118,158,97
401913.420,5755869.280,80.270,124,164,97
401913.370,5755869.220,80.220,119,158,91
401913.310,5755869.160,80.220,101,139,78
401913.270,5755869.100,80.190,106,143,86
401913.210,5755869.030,80.200,115,153,91
401913.150,5755868.960,80.210,127,167,98
401913.090,5755868.900,80.230,124,165,94
401913.410,5755869.400,80.280,115,156,89
401913.350,5755869.330,80.270,128,162,100
401913.300,5755869.280,80.220,136,167,108
401913.210,5755869.150,80.190,110,146,86
401913.150,5755869.090,80.220,112,148,85
401913.690,5755869.840,80.290,107,144,77
401913.610,5755869.760,80.380,96,136,68
401913.690,5755869.970,80.230,99,135,73
401913.630,5755869.900,80.240,102,140,77
401913.560,5755869.820,80.350,89,129,67
401913.740,5755870.150,80.210,91,131,79
401913.680,5755870.080,80.230,97,136,83
401913.610,5755870.000,80.290,107,145,85
401913.550,5755869.940,80.310,128,165,96
401913.490,5755869.870,80.360,123,162,92
401913.720,5755870.270,80.230,71,111,60
401913.680,5755870.200,80.210,99,138,84
401913.620,5755870.140,80.210,114,154,99
401913.560,5755870.070,80.230,122,162,103
401913.490,5755869.990,80.300,131,168,100
401913.430,5755869.930,80.300,138,175,100
401913.370,5755869.850,80.370,120,162,78
401913.310,5755869.790,80.380,122,164,74
401913.770,5755870.450,80.240,45,86,49
401913.610,5755870.260,80.240,108,144,86
401913.540,5755870.170,80.330,108,150,89
401913.490,5755870.120,80.280,121,161,99
401913.430,5755870.050,80.310,133,169,99
401913.360,5755869.980,80.340,139,175,94
401913.300,5755869.910,80.390,123,163,77
401913.240,5755869.840,80.390,102,143,64
401913.410,5755870.160,80.340,101,139,82
401913.360,5755870.100,80.340,118,155,87
401913.300,5755870.040,80.330,111,148,77
401913.820,5755870.760,80.210,39,75,45
401913.760,5755870.700,80.210,52,92,61
401913.820,5755870.900,80.130,41,76,44
401913.750,5755870.820,80.210,44,79,49
401913.820,5755871.030,80.100,45,81,46
401913.760,5755870.960,80.120,54,89,55
401913.690,5755870.880,80.200,56,92,59
401913.890,5755871.240,79.960,72,108,55
401913.830,5755871.170,80.020,76,113,61
401913.760,5755871.090,80.080,60,100,59
401913.700,5755871.020,80.100,50,88,51
401913.630,5755870.940,80.170,41,77,43
401913.910,5755871.400,80.100,103,139,82
401913.870,5755871.350,80.050,112,150,88
401913.820,5755871.300,79.980,113,151,93
401913.770,5755871.240,79.970,89,128,77
401913.700,5755871.150,80.060,60,102,60
401913.640,5755871.080,80.080,49,88,51
401913.570,5755871.000,80.160,55,90,51
401913.510,5755870.930,80.170,65,102,57
401913.440,5755870.860,80.220,59,96,52
401913.380,5755870.780,80.270,56,94,53
401913.960,5755871.590,80.100,105,138,76
401913.910,5755871.530,80.060,116,148,90
401913.860,5755871.480,80.010,127,162,105
401913.810,5755871.420,79.960,117,157,98
401913.760,5755871.360,79.950,100,141,83
401913.710,5755871.300,79.950,78,119,72
401913.650,5755871.230,79.970,63,104,67
401913.570,5755871.130,80.100,61,100,63
401913.510,5755871.070,80.120,80,116,69
401913.450,5755871.000,80.120,75,112,61
401913.390,5755870.920,80.170,58,96,48
401913.940,5755871.690,80.190,127,163,94
401913.880,5755871.620,80.200,131,165,101
401913.820,5755871.560,80.180,128,159,98
401913.780,5755871.500,80.160,125,158,97
401913.750,5755871.480,79.960,109,148,94
401913.700,5755871.420,79.970,85,127,78
401913.640,5755871.350,79.970,66,109,68
401913.570,5755871.280,80.010,58,99,66
401913.490,5755871.180,80.160,52,88,51
401913.440,5755871.110,80.160,75,111,64
401913.990,5755871.870,80.180,99,136,68
401913.930,5755871.810,80.180,100,135,67
401913.870,5755871.740,80.200,119,156,90
401913.810,5755871.680,80.210,112,150,87
401913.760,5755871.610,80.200,119,151,89
401913.710,5755871.550,80.180,119,154,93
401913.680,5755871.520,80.010,102,142,89
401913.620,5755871.450,80.020,77,120,76
401913.560,5755871.380,80.030,59,103,66
401913.490,5755871.310,80.110,51,92,59
401913.430,5755871.230,80.180,52,90,50
401913.980,5755871.990,80.200,105,143,78
401913.920,5755871.930,80.180,96,132,71
401913.870,5755871.870,80.170,114,149,82
401913.810,5755871.800,80.190,124,161,93
401913.750,5755871.740,80.190,118,154,86
401913.690,5755871.670,80.190,123,155,86
401913.650,5755871.610,80.180,114,150,90
401913.600,5755871.550,80.100,91,132,80
401913.540,5755871.490,80.110,73,116,69
401913.470,5755871.410,80.220,54,96,54
401914.040,5755872.180,80.140,133,164,103
401913.970,5755872.110,80.180,125,157,91
401913.920,5755872.040,80.180,115,152,86
401913.860,5755871.980,80.180,133,169,104
401913.800,5755871.910,80.170,141,180,109
401913.740,5755871.850,80.190,115,156,86
401913.690,5755871.790,80.180,103,139,71
401913.630,5755871.730,80.170,113,146,72
401913.590,5755871.660,80.160,108,143,76
401913.520,5755871.590,80.190,85,124,67
401913.470,5755871.520,80.200,68,108,60
401913.970,5755872.240,80.150,122,155,96
401913.850,5755872.100,80.180,127,162,97
401913.790,5755872.030,80.200,135,173,106
401913.740,5755871.970,80.190,119,159,95
401913.680,5755871.910,80.180,82,123,65
401913.620,5755871.840,80.190,69,108,45
401913.570,5755871.780,80.180,91,128,61
401913.520,5755871.710,80.180,87,122,60
401913.780,5755872.140,80.230,112,148,87
401913.730,5755872.090,80.200,111,148,85
401913.670,5755872.020,80.200,112,146,87
401913.610,5755871.960,80.190,101,136,85
401913.560,5755871.900,80.180,85,122,63
401913.650,5755872.130,80.250,111,148,86
401913.600,5755872.080,80.210,124,155,97
401913.550,5755872.020,80.190,117,147,95
401913.590,5755872.190,80.250,120,158,97
401914.200,5755873.280,80.160,145,172,98
401914.140,5755873.210,80.170,146,173,98
401914.080,5755873.150,80.190,126,157,85
401914.020,5755873.080,80.210,114,149,81
401914.150,5755873.360,80.110,137,168,81
401914.090,5755873.290,80.100,128,156,77
401914.030,5755873.230,80.090,105,134,66
401913.980,5755873.170,80.090,92,123,60
401913.910,5755873.080,80.170,77,108,49
401914.080,5755873.410,80.120,111,143,68
401914.020,5755873.350,80.100,95,126,55
401913.960,5755873.280,80.120,81,110,47
401913.910,5755873.220,80.110,82,112,50
401913.850,5755873.160,80.110,68,101,42
401913.790,5755873.080,80.160,91,117,56
401913.970,5755873.420,80.070,93,119,58
401913.910,5755873.350,80.070,90,118,58
401913.860,5755873.300,80.040,94,126,64
401913.820,5755873.260,79.940,87,120,60
401913.730,5755873.150,80.110,96,128,66
401914.310,5755873.940,79.990,122,156,88
401913.890,5755873.460,80.100,106,132,62
401913.840,5755873.410,80.070,104,137,66
401913.800,5755873.360,79.990,90,123,61
401913.750,5755873.320,79.930,95,126,62
401914.300,5755874.080,79.960,128,163,93
401914.240,5755874.000,79.980,132,164,94
401914.180,5755873.920,80.050,105,136,77
401913.770,5755873.450,80.090,114,147,72
401914.240,5755874.140,79.940,130,167,103
401914.170,5755874.050,80.010,121,156,90
401914.000,5755873.840,80.050,123,155,81
401913.950,5755873.780,80.050,112,145,73
401913.840,5755873.660,80.020,98,123,70
401914.180,5755874.190,79.950,130,165,104
401914.370,5755874.570,79.780,120,147,70
401914.180,5755874.330,79.910,137,171,106
401914.120,5755874.410,79.860,130,168,99
401914.050,5755874.460,79.870,128,164,88
401914.130,5755874.690,79.750,148,177,103
401914.060,5755874.610,79.800,132,165,92
401913.990,5755874.530,79.830,114,149,73
401914.060,5755875.300,79.530,143,168,83
401914.640,5755876.330,79.070,133,157,72
401914.580,5755876.240,79.120,133,157,69
401914.510,5755876.150,79.170,142,165,77
401914.700,5755876.530,79.030,128,159,71
401914.580,5755876.390,79.050,132,162,80
401914.530,5755876.340,79.010,129,158,71
401914.460,5755876.250,79.080,139,165,75
401914.260,5755875.980,79.250,132,163,61
401914.130,5755875.830,79.290,137,167,71
401914.690,5755876.650,79.040,115,155,59
401914.680,5755876.670,78.800,110,149,60
401914.590,5755876.540,78.980,117,153,69
401914.520,5755876.460,79.000,127,159,80
401914.470,5755876.400,78.980,114,147,64
401914.390,5755876.300,79.090,122,153,65
401914.200,5755876.050,79.230,112,148,48
401914.750,5755876.850,79.020,105,147,64
401914.660,5755876.770,78.870,101,141,52
401914.610,5755876.740,78.790,101,141,53
401914.550,5755876.670,78.780,113,147,63
401914.480,5755876.570,78.880,136,167,84
401914.420,5755876.510,78.860,126,159,70
401914.350,5755876.410,78.950,131,163,68
401914.270,5755876.300,79.040,139,171,76
401914.200,5755876.210,79.110,113,150,62
401914.730,5755876.950,79.060,111,148,67
401914.680,5755876.890,79.050,115,154,73
401914.620,5755876.840,79.020,112,151,70
401914.570,5755876.800,78.950,113,151,66
401914.530,5755876.760,78.870,116,152,62
401914.470,5755876.700,78.870,122,154,70
401914.430,5755876.660,78.790,135,165,80
401914.370,5755876.610,78.750,137,167,77
401914.280,5755876.480,78.920,135,167,71
401914.220,5755876.400,78.940,140,175,79
401914.720,5755877.070,79.090,102,143,68
401914.670,5755877.030,79.030,110,147,62
401914.610,5755876.950,79.040,126,163,79
401914.560,5755876.910,78.990,120,157,72
401914.510,5755876.860,78.950,125,160,73
401914.460,5755876.810,78.910,114,151,61
401914.410,5755876.780,78.830,119,149,65
401914.360,5755876.730,78.760,134,162,76
401914.310,5755876.680,78.740,146,174,85
401914.450,5755876.930,78.920,106,141,65
401914.400,5755876.880,78.870,90,128,49
401914.350,5755876.850,78.790,95,130,47
401914.300,5755876.800,78.740,125,154,67
401914.380,5755876.990,78.910,82,124,47
401914.330,5755876.950,78.840,99,135,55
401914.320,5755877.060,78.900,101,142,52
401914.990,5755878.400,78.830,130,156,97
401914.930,5755878.320,78.870,146,181,122
401914.510,5755877.820,78.920,60,97,44
401915.000,5755878.550,78.760,108,144,76
401914.930,5755878.470,78.790,125,158,92
401914.870,5755878.390,78.830,124,160,92
401914.800,5755878.290,78.910,121,161,97
401914.500,5755877.940,78.960,97,136,72
401914.440,5755877.880,78.930,70,108,50
401914.940,5755878.630,78.710,119,157,86
401914.880,5755878.570,78.700,106,145,75
401914.810,5755878.470,78.770,92,131,62
401914.740,5755878.360,78.860,111,150,83
401914.880,5755878.710,78.680,117,157,85
401914.820,5755878.630,78.690,100,138,70
401914.750,5755878.550,78.730,106,142,76
401914.680,5755878.430,78.840,127,164,94
401914.820,5755878.800,78.620,113,148,74
401914.760,5755878.710,78.660,109,144,76
401914.690,5755878.620,78.700,120,154,88
401914.610,5755878.510,78.800,137,172,105
401914.840,5755878.980,78.500,142,157,91
401914.770,5755878.890,78.560,124,151,80
401914.700,5755878.790,78.610,119,153,85
401914.630,5755878.690,78.680,124,158,89
401914.550,5755878.580,78.770,126,160,95
401914.700,5755878.940,78.560,136,159,94
401914.640,5755878.880,78.550,109,144,80
401914.650,5755879.060,78.440,145,162,99
401915.290,5755880.390,77.750,153,128,42
401915.280,5755880.510,77.790,155,132,46
401915.220,5755880.440,77.780,154,130,44
401915.340,5755880.740,77.730,153,130,47
401915.270,5755880.630,77.800,157,135,50
401915.200,5755880.540,77.840,157,135,48
401915.150,5755880.490,77.800,155,132,45
401915.340,5755880.870,77.730,155,131,51
401915.280,5755880.810,77.720,159,134,50
401915.200,5755880.700,77.790,160,137,49
401915.140,5755880.630,77.780,159,136,50
401915.370,5755881.020,77.840,129,115,51
401915.310,5755880.970,77.800,143,122,47
401915.260,5755880.920,77.740,156,131,47
401915.190,5755880.830,77.790,161,136,47
401915.120,5755880.740,77.830,162,138,47
401915.070,5755880.680,77.800,161,137,48
401915.390,5755881.140,77.980,139,132,65
401915.340,5755881.100,77.920,138,128,64
401915.290,5755881.040,77.900,133,117,51
401915.250,5755881.040,77.760,142,121,48
401915.180,5755880.960,77.800,154,130,48
401915.110,5755880.870,77.840,160,137,49
401915.060,5755880.810,77.820,164,140,52
401914.990,5755880.740,77.820,164,140,54
401915.290,5755881.180,77.870,134,118,48
401915.240,5755881.150,77.800,135,116,46
401915.180,5755881.100,77.760,143,121,48
401915.120,5755881.020,77.790,151,128,50
401915.050,5755880.940,77.790,157,134,52
401914.990,5755880.870,77.810,160,137,55
401914.930,5755880.800,77.810,159,138,57
401915.100,5755881.130,77.810,142,120,45
401915.040,5755881.070,77.800,150,126,50
401914.990,5755881.010,77.780,155,132,52
401914.930,5755880.950,77.760,154,133,50
401915.010,5755881.130,77.940,136,114,41
401914.960,5755881.080,77.900,147,123,46
401915.030,5755878.730,78.580,114,152,65
401914.910,5755878.670,78.660,107,148,67
401914.800,5755878.600,78.740,92,132,52
401914.750,5755878.530,78.720,100,135,60
401914.960,5755878.790,78.590,106,146,60
401914.840,5755878.730,78.670,88,129,52
401914.740,5755878.660,78.730,93,127,52
401914.650,5755878.590,78.770,106,140,66
401914.930,5755878.850,78.530,113,151,68
401914.800,5755878.790,78.630,94,133,52
401914.700,5755878.720,78.680,104,139,64
401914.640,5755878.650,78.680,107,144,74
401914.770,5755878.850,78.590,98,136,56
401914.650,5755878.780,78.660,94,134,59
401914.580,5755878.710,78.680,94,135,68
401914.880,5755878.970,78.420,117,147,93
401914.740,5755878.910,78.530,108,143,72
401914.620,5755878.840,78.620,87,128,53
401914.780,5755878.970,78.380,115,144,85
401915.200,5755879.940,77.800,153,145,115
401915.120,5755879.870,77.840,154,146,114
401915.100,5755880.000,77.850,157,147,114
401915.030,5755879.940,77.860,156,146,114
401915.040,5755880.070,77.840,158,148,114
401914.970,5755880.000,77.850,157,147,114
401915.380,5755881.060,77.910,132,128,86
401915.370,5755881.000,77.830,138,126,84
401915.260,5755881.060,77.890,137,126,86
401915.260,5755881.000,77.810,151,136,91
401915.150,5755881.110,77.960,140,127,74
401915.130,5755881.040,77.900,147,131,75
401915.090,5755881.170,77.940,138,125,62
401915.050,5755881.100,77.920,144,128,62
401915.000,5755881.170,77.880,140,125,59
401916.400,5755890.250,79.550,151,160,86
401916.530,5755890.440,79.500,162,167,89
401916.550,5755890.490,79.450,172,175,94
401916.560,5755890.550,79.400,170,175,95
401916.630,5755890.610,79.400,154,160,88
401916.700,5755890.680,79.400,136,145,79
401916.780,5755890.750,79.440,133,143,77
401916.470,5755890.190,79.550,159,161,92
401916.510,5755890.250,79.540,170,172,99
401916.570,5755890.320,79.530,176,181,104
401916.610,5755890.380,79.510,175,181,103
401916.630,5755890.430,79.470,179,182,103
401916.640,5755890.490,79.420,183,189,108
401916.700,5755890.560,79.420,174,181,102
401916.800,5755890.630,79.450,160,167,93
401916.870,5755890.690,79.460,155,163,89
401916.560,5755890.140,79.580,153,154,83
401916.640,5755890.260,79.540,165,169,92
401916.570,5755890.300,79.400,176,181,104
401916.790,5755890.440,79.500,192,197,113
401916.830,5755890.510,79.480,191,198,112
401916.630,5755890.090,79.590,149,156,80
401916.640,5755890.020,79.530,150,165,84
401916.680,5755890.080,79.510,150,160,85
401916.670,5755889.950,79.490,155,169,87
401916.680,5755889.880,79.440,155,161,88
401914.200,5755873.150,80.090,107,142,84
401914.150,5755873.100,80.110,111,146,84
401914.150,5755873.090,80.210,101,137,75
401914.090,5755873.020,80.220,96,133,78
401914.210,5755873.290,80.000,101,138,74
401914.180,5755873.260,80.060,110,148,85
401914.140,5755873.210,80.100,124,159,91
401914.090,5755873.160,80.120,118,149,82
401914.040,5755873.100,80.130,99,130,67
401913.970,5755873.020,80.110,86,122,64
401913.920,5755872.970,80.130,79,115,60
401913.910,5755872.950,80.210,80,115,64
401914.250,5755873.470,79.990,123,154,80
401914.190,5755873.410,79.990,113,145,72
401914.160,5755873.370,80.050,110,147,72
401914.120,5755873.320,80.080,113,150,74
401914.080,5755873.270,80.110,119,152,79
401914.020,5755873.210,80.100,113,141,75
401913.960,5755873.140,80.110,92,120,60
401913.900,5755873.070,80.090,81,112,54
401913.850,5755873.010,80.110,73,106,47
401913.810,5755872.970,80.150,74,107,49
401914.220,5755873.570,80.060,117,150,77
401914.170,5755873.510,80.080,109,139,67
401914.130,5755873.460,80.110,93,125,53
401914.070,5755873.400,80.110,81,116,49
401914.010,5755873.330,80.100,80,116,53
401913.950,5755873.260,80.090,84,114,52
401913.900,5755873.200,80.110,70,100,45
401913.820,5755873.110,80.070,78,111,58
401913.780,5755873.070,80.100,83,116,59
401913.730,5755873.010,80.110,80,115,56
401914.270,5755873.750,80.060,110,143,83
401914.210,5755873.690,80.060,114,145,84
401914.160,5755873.620,80.070,112,142,74
401914.100,5755873.560,80.060,110,141,73
401914.060,5755873.510,80.100,106,137,70
401914.000,5755873.450,80.100,82,114,52
401913.940,5755873.380,80.080,80,116,57
401913.880,5755873.310,80.070,92,122,62
401913.820,5755873.240,80.070,78,108,56
401913.730,5755873.150,80.020,74,108,59
401914.260,5755873.870,80.050,101,139,83
401914.100,5755873.680,80.070,108,139,78
401914.040,5755873.620,80.080,114,147,82
401913.930,5755873.490,80.080,102,131,65
401913.860,5755873.420,80.060,96,130,65
401913.810,5755873.360,80.060,107,140,74
401913.750,5755873.290,80.070,97,126,67
401914.320,5755874.080,79.870,98,131,77
401914.280,5755874.030,79.900,73,109,60
401914.250,5755874.000,79.960,57,93,48
401914.210,5755873.950,79.990,73,113,69
401914.180,5755873.910,80.040,105,143,85
401914.140,5755873.860,80.060,111,141,76
401914.090,5755873.800,80.080,106,136,77
401914.040,5755873.740,80.090,105,138,77
401913.980,5755873.670,80.080,102,136,74
401913.860,5755873.540,80.070,104,136,65
401913.790,5755873.460,80.050,102,135,64
401914.360,5755874.260,79.850,99,137,82
401914.310,5755874.200,79.850,110,150,93
401914.260,5755874.140,79.870,114,148,88
401914.220,5755874.090,79.900,83,117,60
401914.190,5755874.060,79.960,54,92,44
401914.080,5755873.920,80.070,99,128,64
401913.970,5755873.790,80.080,90,120,65
401913.900,5755873.710,80.050,82,115,58
401913.870,5755873.670,80.100,80,112,51
401913.790,5755873.590,80.060,78,111,46
401914.360,5755874.390,79.860,90,123,65
401914.310,5755874.330,79.870,85,123,66
401914.250,5755874.260,79.870,100,142,86
401914.190,5755874.200,79.860,101,142,83
401914.150,5755874.150,79.900,95,133,75
401914.120,5755874.110,79.950,73,109,55
401913.910,5755873.850,80.090,45,74,36
401913.840,5755873.780,80.060,55,89,41
401914.420,5755874.600,79.620,100,125,56
401914.410,5755874.580,79.730,98,132,58
401914.350,5755874.510,79.720,101,138,67
401914.240,5755874.390,79.870,90,128,69
401914.180,5755874.320,79.860,94,134,77
401914.130,5755874.260,79.870,94,135,77
401914.090,5755874.210,79.910,108,147,88
401914.060,5755874.170,79.960,86,122,59
401914.420,5755874.730,79.650,98,128,59
401914.340,5755874.640,79.590,103,131,60
401914.290,5755874.590,79.620,102,136,63
401914.270,5755874.560,79.700,108,146,75
401914.240,5755874.530,79.770,115,152,84
401914.110,5755874.370,79.850,102,138,80
401914.060,5755874.310,79.850,99,136,81
401914.010,5755874.250,79.880,105,143,86
401913.990,5755874.220,79.950,97,131,71
401914.410,5755874.860,79.640,61,95,33
401914.340,5755874.780,79.620,78,114,46
401914.260,5755874.690,79.570,92,127,56
401914.230,5755874.650,79.630,102,139,66
401914.230,5755874.640,79.750,105,141,68
401914.180,5755874.590,79.780,112,146,77
401914.060,5755874.440,79.870,104,141,76
401913.960,5755874.320,79.900,103,139,78
401913.920,5755874.270,79.940,107,137,83
401914.340,5755874.900,79.620,70,103,39
401914.260,5755874.820,79.580,84,117,49
401914.170,5755874.720,79.510,95,128,59
401914.150,5755874.700,79.610,104,137,65
401914.140,5755874.670,79.690,103,136,65
401914.110,5755874.640,79.760,105,139,72
401913.990,5755874.490,79.860,87,121,57
401913.930,5755874.430,79.870,88,124,62
401914.500,5755875.240,79.390,82,118,38
401914.450,5755875.180,79.390,94,130,54
401914.410,5755875.140,79.450,103,136,59
401914.250,5755874.940,79.580,102,128,64
401914.180,5755874.860,79.550,91,114,48
401914.080,5755874.750,79.470,77,107,42
401914.090,5755874.760,79.610,82,114,50
401914.070,5755874.730,79.690,97,131,65
401914.030,5755874.680,79.730,107,141,78
401914.540,5755875.420,79.350,88,120,43
401914.480,5755875.350,79.360,91,122,42
401914.420,5755875.290,79.360,91,124,45
401914.370,5755875.230,79.370,102,136,59
401914.190,5755875.010,79.590,101,129,61
401914.120,5755874.920,79.570,87,115,41
401914.070,5755874.870,79.590,74,106,39
401914.040,5755874.830,79.650,83,117,51
401913.990,5755874.780,79.670,94,128,61
401914.560,5755875.580,79.280,118,149,60
401914.500,5755875.520,79.290,112,143,60
401914.450,5755875.460,79.310,111,142,63
401914.400,5755875.400,79.330,108,141,60
401914.350,5755875.340,79.340,88,121,43
401914.290,5755875.280,79.350,93,129,52
401914.150,5755875.100,79.410,106,137,59
401914.120,5755875.060,79.460,106,141,62
401914.110,5755875.030,79.540,106,141,65
401914.050,5755874.970,79.550,98,134,56
401914.560,5755875.720,79.180,117,145,67
401914.520,5755875.670,79.210,117,146,60
401914.450,5755875.580,79.320,117,151,66
401914.370,5755875.500,79.280,115,146,62
401914.330,5755875.450,79.310,105,138,56
401914.280,5755875.390,79.330,99,132,50
401914.220,5755875.330,79.340,98,137,54
401914.220,5755875.320,79.460,113,151,70
401914.180,5755875.270,79.510,122,156,74
401914.110,5755875.190,79.480,124,156,74
401914.080,5755875.150,79.540,117,150,67
401914.510,5755875.800,79.230,116,142,62
401914.480,5755875.760,79.280,108,135,53
401914.350,5755875.620,79.260,102,132,52
401914.320,5755875.570,79.310,98,127,48
401914.270,5755875.520,79.340,96,129,46
401914.220,5755875.460,79.360,105,138,50
401914.170,5755875.400,79.370,115,149,62
401914.130,5755875.350,79.400,119,152,64
401914.080,5755875.290,79.430,118,151,63
401914.640,5755876.100,79.170,101,137,50
401914.320,5755875.710,79.330,115,145,68
401914.270,5755875.650,79.340,117,145,67
401914.220,5755875.590,79.360,115,146,61
401914.180,5755875.540,79.400,108,139,52
401914.130,5755875.480,79.430,119,147,61
401914.070,5755875.420,79.430,123,149,62
401914.660,5755876.280,78.960,110,140,59
401914.620,5755876.230,79.000,87,118,38
401914.580,5755876.180,79.050,73,109,37
401914.550,5755876.130,79.100,98,135,54
401914.510,5755876.090,79.150,111,148,60
401914.250,5755875.760,79.320,118,149,64
401914.210,5755875.710,79.360,129,157,75
401914.160,5755875.650,79.380,129,159,70
401914.690,5755876.450,78.900,103,129,63
401914.640,5755876.390,78.930,105,130,61
401914.590,5755876.340,78.960,104,135,56
401914.550,5755876.280,78.980,96,129,51
401914.510,5755876.230,79.030,100,136,60
401914.480,5755876.190,79.100,109,144,62
401914.440,5755876.150,79.150,115,148,66
401914.180,5755875.820,79.320,121,154,65
401914.130,5755875.760,79.340,121,151,65
401914.710,5755876.600,78.960,86,116,53
401914.630,5755876.510,78.920,83,112,49
401914.560,5755876.430,78.910,85,114,47
401914.520,5755876.380,78.940,95,127,54
401914.470,5755876.330,78.970,99,131,55
401914.440,5755876.290,79.020,106,138,61
401914.410,5755876.250,79.080,107,137,58
401914.370,5755876.200,79.130,97,126,50
401914.200,5755875.980,79.250,107,143,57
401914.150,5755875.920,79.270,107,141,50
401914.670,5755876.680,79.030,86,120,54
401914.610,5755876.610,79.020,87,115,56
401914.510,5755876.500,78.940,79,102,46
401914.460,5755876.440,78.950,58,87,33
401914.410,5755876.380,78.980,76,109,45
401914.370,5755876.340,79.030,109,143,69
401914.340,5755876.300,79.070,114,141,62
401914.300,5755876.250,79.120,85,113,40
401914.260,5755876.200,79.160,81,113,42
401914.220,5755876.150,79.190,76,109,40
401914.610,5755876.740,79.050,115,148,75
401914.550,5755876.670,79.030,110,138,73
401914.450,5755876.570,78.940,88,110,51
401914.390,5755876.500,78.940,64,96,35
401914.330,5755876.440,78.960,81,118,47
401914.290,5755876.390,79.000,112,148,67
401914.250,5755876.340,79.040,119,146,70
401914.220,5755876.290,79.090,101,132,61
401914.440,5755876.690,78.950,105,134,66
401914.370,5755876.620,78.930,96,127,57
401914.320,5755876.560,78.950,87,121,48
401914.270,5755876.500,78.960,95,130,56
401914.220,5755876.440,78.990,98,132,58
401914.380,5755876.760,78.960,131,157,91
401914.300,5755876.670,78.910,122,150,79
401914.300,5755876.810,78.930,129,161,80
401914.380,5755877.030,78.990,137,172,98
401914.310,5755876.950,78.960,134,169,92
401914.360,5755877.140,78.970,123,162,78
401914.360,5755877.270,78.980,120,155,82
401914.950,5755878.240,78.910,104,142,93
401914.920,5755878.350,78.880,103,140,87
401914.880,5755878.290,78.890,100,137,87
401914.990,5755878.570,78.770,103,142,81
401914.940,5755878.510,78.800,115,151,93
401914.900,5755878.460,78.840,92,128,70
401914.850,5755878.410,78.860,75,113,60
401914.800,5755878.350,78.880,71,109,56
401915.000,5755878.740,78.690,91,131,67
401914.950,5755878.670,78.700,100,141,78
401914.880,5755878.600,78.690,100,139,79
401914.840,5755878.550,78.720,102,139,83
401914.790,5755878.480,78.740,86,122,64
401914.740,5755878.430,78.770,69,110,53
401914.710,5755878.380,78.820,81,123,60
401915.100,5755879.040,78.380,78,94,59
401915.080,5755879.000,78.460,92,117,71
401915.040,5755878.950,78.520,93,125,70
401915.010,5755878.900,78.580,93,129,71
401914.950,5755878.830,78.580,98,132,71
401914.910,5755878.780,78.620,99,138,75
401914.870,5755878.720,78.670,104,142,78
401914.810,5755878.660,78.670,100,138,78
401914.760,5755878.590,78.690,98,133,76
401914.710,5755878.530,78.710,86,121,63
401914.660,5755878.480,78.750,83,122,62
401914.650,5755878.440,78.820,89,132,69
401915.100,5755879.300,77.680,120,106,55
401915.070,5755879.250,77.760,116,104,54
401915.070,5755879.150,78.320,54,56,32
401915.010,5755879.060,78.460,73,95,57
401914.950,5755878.990,78.470,80,110,60
401914.910,5755878.940,78.520,93,127,71
401914.860,5755878.880,78.540,102,138,75
401914.800,5755878.780,78.670,97,134,70
401914.730,5755878.710,78.660,99,139,76
401914.670,5755878.640,78.650,93,128,69
401914.620,5755878.580,78.680,88,124,68
401914.580,5755878.530,78.710,101,137,80
401914.560,5755878.480,78.770,84,119,66
401915.120,5755879.480,77.620,125,108,57
401915.070,5755879.420,77.630,125,109,57
401915.020,5755879.360,77.670,124,108,56
401914.990,5755879.310,77.730,120,105,55
401914.980,5755879.200,78.270,53,54,29
401914.920,5755879.100,78.400,55,71,41
401914.860,5755879.040,78.430,74,98,54
401914.820,5755878.980,78.460,83,118,64
401914.780,5755878.930,78.510,102,142,81
401914.670,5755878.770,78.660,100,140,78
401914.600,5755878.700,78.650,100,136,77
401915.160,5755879.650,77.730,126,110,57
401915.120,5755879.590,77.770,126,109,57
401915.020,5755879.500,77.690,126,110,57
401914.960,5755879.420,77.680,126,109,57
401914.910,5755879.370,77.720,122,106,56
401914.890,5755879.320,77.800,115,100,53
401914.780,5755879.090,78.380,64,87,45
401914.720,5755879.020,78.400,79,111,59
401914.680,5755878.970,78.440,93,131,76
401915.220,5755879.850,77.750,129,112,58
401915.150,5755879.780,77.730,128,111,58
401915.090,5755879.700,77.720,128,111,57
401914.840,5755879.390,77.850,116,101,52
401914.790,5755879.340,77.890,105,93,49
401914.760,5755879.240,78.230,56,61,38
401914.690,5755879.130,78.340,56,73,40
401914.650,5755879.080,78.390,73,99,50
401915.220,5755879.990,77.770,132,115,57
401915.160,5755879.920,77.760,129,113,56
401915.090,5755879.840,77.740,129,112,58
401915.080,5755879.970,77.750,132,114,54
401915.020,5755879.910,77.750,131,113,58
401916.410,5755887.680,79.470,78,105,50
401916.420,5755887.860,79.360,66,95,41
401916.380,5755887.800,79.410,62,90,38
401916.330,5755887.740,79.430,49,76,32
401916.310,5755887.910,79.260,58,87,40
401916.290,5755887.850,79.340,54,83,38
401916.250,5755887.780,79.400,47,76,36
401916.210,5755887.720,79.430,46,74,38
401916.420,5755888.170,79.250,83,107,53
401916.390,5755888.110,79.320,60,90,41
401916.270,5755888.040,79.170,52,83,39
401916.230,5755887.970,79.220,51,82,38
401916.200,5755887.910,79.300,52,82,39
401916.180,5755887.840,79.380,54,84,42
401916.130,5755887.780,79.400,54,83,43
401916.310,5755888.230,79.150,69,97,41
401916.230,5755888.160,79.100,61,90,41
401916.160,5755888.090,79.070,63,94,48
401916.120,5755888.030,79.110,58,88,44
401916.100,5755887.960,79.210,54,83,42
401916.100,5755887.900,79.360,55,84,44
401916.080,5755887.840,79.450,66,93,52
401916.220,5755888.290,79.070,76,108,47
401916.140,5755888.220,79.030,66,97,45
401916.060,5755888.150,78.970,71,99,52
401916.000,5755888.090,78.980,60,88,44
401916.020,5755888.020,79.180,55,83,42
401916.010,5755887.960,79.300,52,80,42
401916.250,5755888.480,79.050,112,143,74
401916.200,5755888.410,79.030,114,143,76
401916.140,5755888.350,79.050,97,128,63
401916.080,5755888.280,79.050,79,111,52
401916.040,5755888.210,79.090,63,92,45
401916.590,5755888.800,79.490,103,132,62
401916.250,5755888.600,79.060,122,150,81
401916.160,5755888.540,79.000,119,150,78
401916.110,5755888.470,78.990,114,145,76
401916.070,5755888.400,79.030,98,130,64
401916.480,5755888.860,79.370,112,142,71
401916.350,5755888.800,79.210,109,139,68
401916.260,5755888.730,79.120,116,148,78
401916.180,5755888.660,79.070,110,143,72
401916.100,5755888.600,79.000,101,133,64
401916.530,5755888.980,79.530,129,154,91
401916.430,5755888.920,79.430,121,147,79
401916.300,5755888.850,79.240,111,139,70
401916.210,5755888.790,79.170,117,147,83
401916.120,5755888.720,79.070,110,144,74
401916.470,5755889.040,79.550,134,158,97
401916.380,5755888.970,79.460,132,155,92
401916.250,5755888.910,79.280,111,136,70
401916.140,5755888.850,79.160,111,143,77
401916.420,5755889.100,79.580,143,163,106
401916.320,5755889.030,79.480,137,161,101
401916.200,5755888.970,79.320,121,150,85
401916.350,5755889.150,79.580,133,150,95
401916.260,5755889.090,79.490,137,159,102
401916.180,5755889.030,79.440,135,161,96
401916.280,5755889.210,79.570,118,137,82
401916.180,5755889.150,79.460,134,154,97
401916.750,5755889.930,79.470,145,162,97
401916.700,5755889.860,79.500,141,162,98
401916.690,5755889.790,79.610,123,152,88
401916.790,5755890.120,79.440,134,160,92
401916.740,5755890.060,79.450,131,156,86
401916.690,5755889.990,79.500,136,159,87
