//X,Y,Z,R,G,B
401916.540,5755863.440,80.400,108,135,70
401916.570,5755863.500,80.330,98,125,61
401916.640,5755863.570,80.350,100,125,63
401916.700,5755863.630,80.360,108,133,72
401916.600,5755863.390,80.380,120,147,72
401916.640,5755863.450,80.350,111,137,67
401916.720,5755863.520,80.390,109,132,69
401916.810,5755863.650,80.360,117,139,81
401917.130,5755863.480,80.390,128,145,82
401917.170,5755863.540,80.330,129,147,84
401917.100,5755863.300,80.410,100,119,55
401917.120,5755863.350,80.340,121,139,71
401917.160,5755863.410,80.280,125,145,73
401917.200,5755863.470,80.250,123,145,75
401917.160,5755863.240,80.410,124,146,77
401917.220,5755863.300,80.400,113,136,74
401917.220,5755863.350,80.280,120,143,74
401917.250,5755863.410,80.220,106,133,67
401917.200,5755863.180,80.350,121,141,83
401917.250,5755863.240,80.330,110,134,81
401917.290,5755863.300,80.300,94,120,65
401917.340,5755863.360,80.280,75,101,47
401917.320,5755863.180,80.330,110,133,80
401917.360,5755863.240,80.310,90,116,58
401917.370,5755863.290,80.200,85,110,50
401917.440,5755863.190,80.350,107,130,62
401917.450,5755863.240,80.230,121,147,74
401917.510,5755863.180,80.230,111,137,73
401917.860,5755863.160,80.330,110,134,64
401917.950,5755863.280,80.280,98,120,51
401918.020,5755863.340,80.300,100,125,59
401918.050,5755863.390,80.220,76,103,42
401918.070,5755863.440,80.120,82,111,40
401918.130,5755863.500,80.130,87,116,47
401918.200,5755863.570,80.170,90,116,49
401918.020,5755863.220,80.310,115,136,65
401918.050,5755863.270,80.200,100,124,61
401918.080,5755863.320,80.140,91,117,55
401918.140,5755863.380,80.150,95,123,50
401918.200,5755863.440,80.140,98,127,49
401918.260,5755863.510,80.150,87,116,43
401918.330,5755863.590,80.180,92,117,44
401918.110,5755863.220,80.220,96,119,59
401918.130,5755863.260,80.100,92,115,52
401918.200,5755863.330,80.140,104,129,55
401918.260,5755863.400,80.150,92,121,46
401918.320,5755863.460,80.150,89,117,42
401918.380,5755863.530,80.160,112,137,57
401918.430,5755863.590,80.150,119,144,62
401918.190,5755863.160,80.240,115,136,71
401918.210,5755863.210,80.140,110,134,71
401918.280,5755863.280,80.160,100,126,59
401918.330,5755863.340,80.140,95,124,50
401918.380,5755863.400,80.140,94,124,50
401918.450,5755863.470,80.150,101,125,55
401918.490,5755863.530,80.140,116,140,60
401918.550,5755863.590,80.140,119,146,64
401918.280,5755863.160,80.160,92,119,61
401918.340,5755863.220,80.180,72,99,43
401918.390,5755863.280,80.150,101,129,56
401918.450,5755863.350,80.150,112,142,67
401918.510,5755863.410,80.170,83,110,50
401918.580,5755863.480,80.190,85,111,45
401918.630,5755863.540,80.200,89,116,45
401918.400,5755863.160,80.170,66,93,40
401918.460,5755863.220,80.160,72,98,41
401918.520,5755863.290,80.150,83,112,50
401918.580,5755863.350,80.160,70,95,42
401918.630,5755863.420,80.160,85,109,48
401918.690,5755863.480,80.180,85,108,47
401918.760,5755863.550,80.210,72,97,40
401918.520,5755863.160,80.150,94,118,57
401918.580,5755863.230,80.150,91,113,61
401918.640,5755863.290,80.150,75,95,47
401918.700,5755863.360,80.160,99,116,60
401918.750,5755863.430,80.180,107,125,64
401918.820,5755863.490,80.200,102,123,64
401918.870,5755863.550,80.190,80,104,49
401918.640,5755863.170,80.140,87,110,60
401918.700,5755863.240,80.150,93,113,60
401918.760,5755863.300,80.170,105,126,65
401918.820,5755863.370,80.200,127,150,79
401918.880,5755863.430,80.200,112,135,68
401918.940,5755863.500,80.190,115,135,70
401919.000,5755863.560,80.190,117,139,75
401918.770,5755863.180,80.170,97,120,61
401918.830,5755863.240,80.180,99,123,60
401918.890,5755863.310,80.200,122,145,76
401918.940,5755863.370,80.180,122,143,72
401919.000,5755863.440,80.180,143,159,86
401919.060,5755863.500,80.190,139,157,87
401919.110,5755863.560,80.160,123,145,75
401918.840,5755863.120,80.180,105,128,66
401918.890,5755863.190,80.170,117,140,75
401918.950,5755863.250,80.180,112,137,71
401919.000,5755863.310,80.160,115,139,66
401919.050,5755863.380,80.160,135,153,80
401919.120,5755863.440,80.170,145,160,95
401919.170,5755863.500,80.160,119,140,74
401918.970,5755863.130,80.220,81,104,56
401919.010,5755863.190,80.200,71,97,45
401919.060,5755863.250,80.160,99,124,53
401919.120,5755863.320,80.160,117,137,65
401919.170,5755863.380,80.140,134,152,85
401919.230,5755863.450,80.150,126,150,80
401919.290,5755863.510,80.130,105,130,67
401919.350,5755863.570,80.140,92,115,56
401919.080,5755863.140,80.190,54,77,33
401919.120,5755863.190,80.140,87,112,50
401919.180,5755863.260,80.150,113,137,61
401919.230,5755863.320,80.140,130,152,74
401919.300,5755863.390,80.160,125,150,74
401919.350,5755863.450,80.150,105,131,66
401919.420,5755863.520,80.170,108,131,65
401919.180,5755863.130,80.140,89,115,52
401919.240,5755863.200,80.140,99,125,47
401919.300,5755863.260,80.140,109,136,57
401919.380,5755863.340,80.200,113,140,68
401919.500,5755863.470,80.230,111,131,68
401919.550,5755863.530,80.210,110,131,69
401919.310,5755863.140,80.160,81,110,39
401919.370,5755863.210,80.170,77,104,41
401919.440,5755863.290,80.200,94,123,59
401919.670,5755863.540,80.180,93,119,58
401919.430,5755863.160,80.160,59,84,34
401919.790,5755863.550,80.200,80,104,45
401919.500,5755863.100,80.180,86,111,48
401919.570,5755863.170,80.200,108,130,66
401919.860,5755863.490,80.200,86,107,49
401919.890,5755863.540,80.120,113,133,69
401919.630,5755863.110,80.200,118,142,67
401919.700,5755863.180,80.230,117,140,73
401919.920,5755863.430,80.190,97,119,59
401919.960,5755863.490,80.120,108,132,68
401920.000,5755863.540,80.060,117,141,70
401919.760,5755863.120,80.230,103,127,61
401920.020,5755863.430,80.130,100,127,60
401920.070,5755863.490,80.080,99,129,55
401920.110,5755863.550,80.040,92,118,56
401919.880,5755863.130,80.220,105,127,61
401920.150,5755863.440,80.140,87,117,47
401920.190,5755863.500,80.100,94,121,55
401920.260,5755863.440,80.110,100,127,61
401920.300,5755863.500,80.080,109,129,68
401920.330,5755863.390,80.140,101,127,65
401920.380,5755863.450,80.120,122,141,78
401920.420,5755863.500,80.060,147,168,101
401920.390,5755863.320,80.120,98,123,57
401920.440,5755863.390,80.100,106,128,59
401920.480,5755863.440,80.040,132,157,84
401920.530,5755863.500,80.020,131,159,87
401920.450,5755863.260,80.110,101,127,60
401920.480,5755863.320,80.030,111,135,58
401920.530,5755863.380,80.000,123,149,69
401920.580,5755863.440,79.990,120,147,77
401920.640,5755863.510,79.990,111,139,73
401920.510,5755863.200,80.100,120,147,77
401920.540,5755863.260,80.010,124,149,70
401920.600,5755863.320,80.010,121,144,66
401920.650,5755863.380,79.980,121,143,74
401920.700,5755863.440,79.970,107,132,72
401920.760,5755863.510,79.980,99,123,57
401920.560,5755863.140,80.050,113,138,73
401920.600,5755863.200,79.980,110,133,66
401920.650,5755863.260,79.980,108,131,61
401920.710,5755863.320,79.960,130,149,81
401920.770,5755863.390,79.970,132,153,90
401920.830,5755863.450,79.980,123,145,74
401920.890,5755863.520,79.990,123,144,68
401920.630,5755863.080,80.070,95,119,60
401920.660,5755863.140,79.980,89,112,52
401920.720,5755863.200,79.990,113,135,68
401920.770,5755863.260,79.960,134,152,87
401920.830,5755863.330,79.960,127,147,86
401920.890,5755863.390,79.960,119,141,67
401920.950,5755863.460,79.980,129,149,71
401921.010,5755863.520,80.000,131,151,75
401920.730,5755863.080,79.990,102,128,65
401920.790,5755863.150,80.000,102,125,59
401920.840,5755863.210,79.980,105,127,62
401920.900,5755863.270,79.970,107,131,68
401920.950,5755863.330,79.970,99,124,56
401921.020,5755863.400,79.980,120,139,65
401921.080,5755863.470,80.000,133,155,83
401920.850,5755863.100,80.010,98,122,56
401920.910,5755863.160,80.000,104,129,62
401920.970,5755863.220,79.990,107,135,63
401921.020,5755863.290,79.980,85,111,45
401921.070,5755863.340,79.960,98,119,55
401921.120,5755863.400,79.910,118,141,75
401921.190,5755863.480,79.970,101,126,61
401920.970,5755863.100,80.010,117,140,71
401921.030,5755863.170,80.000,108,136,54
401921.090,5755863.230,80.000,97,123,40
401921.150,5755863.290,79.990,101,123,57
401921.190,5755863.350,79.950,92,115,54
401921.260,5755863.420,79.980,88,112,48
401921.320,5755863.490,80.000,86,109,44
401921.040,5755863.050,80.020,126,148,75
401921.100,5755863.110,80.030,115,140,62
401921.260,5755863.300,79.970,103,124,57
401921.330,5755863.360,79.990,109,130,52
401921.390,5755863.430,80.000,113,132,54
401921.330,5755863.240,79.990,129,151,71
401921.390,5755863.310,80.000,133,155,70
401921.450,5755863.370,80.000,137,158,72
401921.290,5755863.060,80.020,133,152,81
401921.400,5755863.180,80.010,135,158,83
401921.460,5755863.250,80.000,118,143,69
401921.460,5755863.130,80.000,120,144,75
401921.730,5755863.430,79.910,127,144,70
401921.780,5755863.490,79.850,129,146,75
401921.800,5755863.380,79.920,111,131,53
401921.830,5755863.430,79.810,130,148,75
401921.920,5755863.380,79.920,134,147,75
401921.970,5755863.450,79.920,119,135,71
401922.000,5755863.330,79.950,110,127,61
401922.100,5755863.460,79.930,109,131,67
401922.050,5755863.270,79.920,106,127,61
401922.100,5755863.330,79.920,111,131,63
401922.150,5755863.390,79.900,111,133,67
401922.210,5755863.450,79.860,110,132,64
401921.950,5755863.020,79.950,82,101,42
401922.120,5755863.210,79.950,116,138,60
401922.230,5755863.340,79.920,99,121,51
401922.280,5755863.400,79.900,94,117,48
401922.340,5755863.460,79.900,100,120,49
401922.050,5755863.010,79.870,120,141,65
401922.130,5755863.090,79.940,117,138,61
401922.190,5755863.150,79.940,130,152,72
401922.230,5755863.210,79.920,130,153,71
401922.270,5755863.270,79.830,120,143,65
401922.330,5755863.330,79.830,115,137,69
401922.390,5755863.400,79.820,113,132,68
401922.460,5755863.470,79.870,117,131,67
401922.180,5755863.020,79.910,124,145,70
401922.240,5755863.080,79.870,132,152,79
401922.280,5755863.150,79.850,134,156,81
401922.310,5755863.190,79.690,131,154,78
401922.370,5755863.260,79.740,126,148,75
401922.430,5755863.330,79.750,132,148,78
401922.520,5755863.400,79.840,137,151,80
401922.560,5755863.460,79.790,138,151,75
401922.290,5755863.020,79.800,136,157,88
401922.320,5755863.070,79.750,138,161,83
401922.350,5755863.120,79.610,147,169,87
401922.420,5755863.190,79.640,138,159,77
401922.480,5755863.260,79.670,132,149,73
401922.560,5755863.330,79.730,140,155,80
401922.640,5755863.410,79.830,150,164,85
401922.370,5755863.000,79.650,142,166,87
401922.410,5755863.050,79.560,138,163,79
401922.470,5755863.120,79.580,116,138,58
401922.540,5755863.190,79.610,120,135,57
401922.620,5755863.270,79.720,125,140,63
401922.700,5755863.360,79.830,131,147,74
401922.770,5755863.430,79.870,127,144,76
401922.530,5755863.060,79.560,95,118,45
401922.600,5755863.130,79.590,96,116,43
401922.670,5755863.200,79.640,112,131,51
401922.760,5755863.300,79.800,115,135,56
401922.830,5755863.370,79.870,121,142,72
401922.600,5755863.010,79.580,111,132,56
401922.680,5755863.090,79.680,96,117,47
401922.740,5755863.160,79.700,112,130,55
401922.820,5755863.240,79.810,117,137,58
401922.900,5755863.320,79.900,121,141,63
401922.750,5755863.030,79.700,103,123,56
401922.810,5755863.100,79.730,91,113,46
401922.900,5755863.190,79.840,114,133,57
401922.890,5755863.050,79.770,72,97,36
401922.950,5755862.990,79.790,84,107,42
401923.260,5755863.320,79.820,145,161,96
401923.630,5755863.090,79.780,116,145,61
401923.700,5755863.030,79.780,99,123,51
401923.750,5755863.090,79.770,70,97,33
401923.790,5755863.140,79.640,66,91,34
401923.840,5755863.200,79.630,86,107,49
401923.760,5755862.980,79.790,86,112,49
401923.820,5755863.040,79.770,89,113,47
401923.870,5755863.090,79.700,95,119,52
401923.910,5755863.150,79.690,99,123,61
401923.970,5755863.220,79.670,110,132,72
401924.040,5755863.290,79.720,98,123,61
401923.880,5755862.990,79.770,101,124,60
401923.940,5755863.050,79.760,100,126,59
401923.990,5755863.110,79.740,85,111,52
401924.050,5755863.180,79.750,94,119,61
401924.110,5755863.250,79.790,101,126,63
401924.010,5755863.000,79.810,73,98,48
401924.060,5755863.060,79.790,60,87,39
401924.100,5755863.110,79.700,78,104,49
401924.160,5755863.170,79.670,80,104,46
401924.240,5755863.260,79.830,92,111,54
401924.120,5755863.000,79.810,52,76,33
401924.170,5755863.060,79.730,66,89,36
401924.230,5755863.120,79.720,74,94,39
401924.200,5755862.950,79.850,73,97,45
401924.310,5755863.070,79.810,95,115,54
401928.390,5755863.240,78.020,128,123,66
401928.460,5755863.190,78.020,134,143,73
401928.520,5755863.260,78.040,149,139,85
401928.530,5755863.130,78.050,158,162,92
401928.590,5755863.200,78.060,170,157,106
401928.650,5755863.260,78.050,178,156,117
401928.600,5755863.070,78.050,166,157,101
401928.660,5755863.130,78.040,175,158,116
401928.720,5755863.200,78.030,173,154,118
401928.670,5755863.000,78.040,174,163,112
401928.730,5755863.070,78.030,171,153,113
401928.790,5755863.140,78.020,175,155,119
401928.850,5755863.200,77.990,180,154,119
401928.670,5755862.870,78.050,167,163,106
401928.740,5755862.940,78.030,169,156,108
401928.800,5755863.010,78.010,174,153,114
401928.860,5755863.070,77.990,186,161,127
401928.920,5755863.140,77.960,173,143,107
401928.990,5755863.200,77.940,154,121,80
401928.740,5755862.810,78.050,175,160,110
401928.800,5755862.880,78.020,178,157,114
401928.870,5755862.940,78.020,190,163,128
401928.930,5755863.010,77.980,187,155,121
401928.990,5755863.070,77.940,161,128,89
401929.060,5755863.140,77.930,154,120,76
401929.120,5755863.200,77.920,157,120,76
401928.870,5755862.810,78.000,186,160,123
401928.940,5755862.880,77.980,185,154,120
401929.000,5755862.940,77.930,166,131,92
401929.060,5755863.000,77.900,156,120,77
401929.120,5755863.070,77.910,157,121,76
401929.190,5755863.140,77.910,157,121,75
401929.250,5755863.210,77.900,153,117,72
401929.010,5755862.810,77.930,166,132,94
401929.070,5755862.870,77.890,156,120,77
401929.130,5755862.940,77.910,156,119,75
401929.190,5755863.010,77.900,155,118,73
401929.250,5755863.080,77.940,156,120,74
401929.320,5755863.150,77.920,148,115,70
401929.380,5755863.220,77.920,145,112,67
401929.140,5755862.800,77.860,157,121,77
401929.200,5755862.870,77.880,156,119,75
401929.260,5755862.950,77.930,155,118,73
401929.320,5755863.020,77.950,155,119,73
401929.390,5755863.090,77.930,150,117,70
401929.450,5755863.150,77.910,148,115,69
401929.500,5755863.220,77.890,152,118,71
401929.270,5755862.820,77.920,156,120,75
401929.330,5755862.880,77.910,154,118,73
401929.390,5755862.960,77.940,153,118,72
401929.460,5755863.020,77.920,153,119,72
401929.520,5755863.090,77.900,154,120,72
401929.570,5755863.160,77.870,154,120,71
401929.630,5755863.220,77.870,153,120,70
401929.400,5755862.820,77.910,156,120,74
401929.460,5755862.900,77.950,155,120,73
401929.520,5755862.960,77.900,157,122,73
401929.590,5755863.030,77.890,159,124,73
401929.640,5755863.090,77.870,159,124,72
401929.700,5755863.160,77.870,156,122,70
401929.770,5755863.230,77.850,155,122,70
401929.530,5755862.830,77.930,156,120,72
401929.590,5755862.900,77.920,159,123,72
401929.660,5755862.960,77.900,161,126,73
401929.710,5755863.030,77.880,160,125,72
401929.770,5755863.100,77.880,159,125,72
401929.840,5755863.160,77.850,161,126,72
401929.600,5755862.760,77.880,158,121,71
401929.660,5755862.840,77.900,161,124,73
401929.730,5755862.900,77.870,160,125,73
401929.780,5755862.970,77.870,160,126,72
401929.840,5755863.040,77.870,162,128,71
401929.900,5755863.110,77.870,163,129,70
401929.970,5755863.180,77.850,161,128,71
401929.730,5755862.780,77.860,160,124,72
401929.800,5755862.840,77.850,161,125,72
401929.850,5755862.910,77.850,163,128,72
401929.910,5755862.980,77.850,164,129,70
401929.970,5755863.050,77.860,162,129,70
401930.040,5755863.120,77.840,160,127,71
401930.100,5755863.180,77.830,160,128,69
401929.860,5755862.780,77.840,160,125,69
401929.920,5755862.850,77.840,162,126,71
401929.980,5755862.920,77.840,162,126,69
401930.040,5755862.990,77.850,160,126,70
401930.110,5755863.050,77.840,161,127,71
401930.170,5755863.120,77.820,164,130,70
401930.230,5755863.190,77.810,165,132,68
401929.990,5755862.780,77.840,159,124,68
401930.050,5755862.850,77.840,158,123,67
401930.110,5755862.920,77.850,159,125,69
401930.170,5755862.990,77.850,163,128,71
401930.240,5755863.060,77.830,166,131,69
401930.300,5755863.130,77.830,164,131,67
401930.360,5755863.200,77.840,166,133,67
401930.120,5755862.790,77.850,159,124,69
401930.180,5755862.860,77.860,161,126,70
401930.240,5755862.930,77.840,164,129,71
401930.310,5755863.000,77.830,168,134,70
401930.370,5755863.070,77.830,168,134,69
401930.430,5755863.140,77.850,168,134,68
401930.250,5755862.800,77.850,161,127,70
401930.310,5755862.870,77.850,165,132,71
401930.370,5755862.940,77.850,172,138,72
401930.440,5755863.010,77.850,177,142,72
401930.500,5755863.070,77.850,176,141,71
401930.560,5755863.140,77.850,168,136,70
401930.320,5755862.740,77.860,165,131,70
401930.380,5755862.810,77.860,169,134,70
401930.440,5755862.870,77.860,175,140,72
401930.500,5755862.940,77.860,182,145,73
401930.570,5755863.010,77.850,182,146,72
401930.630,5755863.080,77.860,175,143,72
401930.690,5755863.150,77.870,171,138,70
401930.450,5755862.750,77.870,174,137,70
401930.510,5755862.810,77.860,177,140,71
401930.570,5755862.880,77.870,181,144,73
401930.640,5755862.950,77.840,179,144,72
401930.700,5755863.020,77.850,180,149,76
401930.760,5755863.090,77.850,176,144,74
401930.820,5755863.160,77.850,169,135,69
401930.580,5755862.750,77.860,174,138,68
401930.640,5755862.820,77.860,178,142,71
401930.710,5755862.890,77.850,179,145,73
401930.770,5755862.960,77.850,187,154,80
401930.830,5755863.020,77.850,182,149,77
401930.890,5755863.090,77.850,170,137,68
401930.960,5755863.160,77.850,175,139,69
401930.710,5755862.750,77.850,174,139,68
401930.780,5755862.820,77.840,182,146,74
401930.840,5755862.890,77.840,187,151,76
401930.900,5755862.960,77.840,182,146,71
401930.960,5755863.030,77.840,181,145,71
401931.020,5755863.100,77.860,184,147,71
401931.090,5755863.170,77.850,180,144,68
401930.850,5755862.760,77.830,177,141,69
401930.910,5755862.830,77.830,181,145,71
401930.970,5755862.900,77.830,181,145,69
401931.030,5755862.970,77.840,188,150,73
401931.090,5755863.040,77.850,185,149,71
401931.160,5755863.110,77.850,179,144,67
401931.210,5755863.180,77.850,182,146,69
401930.980,5755862.760,77.830,178,143,68
401931.040,5755862.830,77.830,180,143,68
401931.100,5755862.900,77.840,186,148,72
401931.160,5755862.970,77.850,185,149,72
401931.220,5755863.040,77.860,187,150,73
401931.280,5755863.120,77.860,186,148,72
401931.050,5755862.710,77.840,179,144,66
401931.110,5755862.780,77.850,184,146,69
401931.170,5755862.850,77.850,182,145,69
401931.230,5755862.920,77.860,181,144,68
401931.290,5755862.990,77.870,182,144,70
401931.340,5755863.070,77.890,178,140,70
401931.410,5755863.140,77.890,177,138,69
401931.180,5755862.720,77.850,178,142,68
401931.240,5755862.790,77.850,180,143,70
401931.300,5755862.860,77.870,179,141,69
401931.360,5755862.930,77.890,173,136,66
401931.420,5755863.000,77.890,173,135,68
401931.470,5755863.070,77.900,172,135,67
401931.540,5755863.140,77.900,167,132,65
401931.310,5755862.730,77.840,175,139,68
401931.370,5755862.800,77.860,177,140,69
401931.430,5755862.870,77.880,173,136,67
401931.480,5755862.940,77.860,169,131,67
401931.540,5755863.010,77.900,165,129,66
401931.610,5755863.080,77.880,162,128,66
401931.680,5755863.130,77.780,162,128,65
401931.440,5755862.730,77.850,171,136,66
401931.500,5755862.800,77.860,167,132,67
401931.550,5755862.870,77.860,165,128,69
401931.620,5755862.940,77.840,162,126,69
401931.680,5755863.010,77.820,161,126,68
401931.750,5755863.070,77.800,160,126,67
401931.810,5755863.140,77.810,160,126,68
401931.570,5755862.740,77.860,164,129,67
401931.630,5755862.810,77.860,161,126,68
401931.680,5755862.880,77.850,162,127,69
401931.750,5755862.950,77.850,162,126,67
401931.810,5755863.020,77.840,160,125,66
401931.870,5755863.090,77.850,158,124,67
401931.940,5755863.150,77.830,156,123,66
401931.700,5755862.750,77.860,163,128,70
401931.750,5755862.820,77.840,162,128,68
401931.820,5755862.880,77.840,162,127,66
401931.880,5755862.950,77.830,161,126,65
401931.940,5755863.020,77.820,158,123,65
401932.000,5755863.090,77.850,155,121,66
401931.820,5755862.750,77.840,164,130,69
401931.880,5755862.820,77.860,165,130,69
401931.940,5755862.900,77.890,164,128,67
401932.010,5755862.960,77.870,160,125,66
401932.070,5755863.030,77.880,159,123,68
401932.140,5755863.100,77.850,155,121,68
401931.890,5755862.690,77.870,168,131,70
401931.950,5755862.760,77.870,171,134,71
401932.020,5755862.830,77.850,166,130,70
401932.080,5755862.900,77.870,158,123,68
401932.140,5755862.970,77.880,159,123,70
401932.200,5755863.040,77.870,157,123,71
401932.270,5755863.100,77.850,157,123,72
401932.020,5755862.700,77.870,167,130,72
401932.080,5755862.770,77.890,162,127,70
401932.140,5755862.840,77.900,155,122,69
401932.200,5755862.910,77.910,158,123,71
401932.270,5755862.970,77.850,161,125,73
401932.330,5755863.050,77.900,162,126,74
401932.390,5755863.120,77.900,166,128,76
401932.150,5755862.710,77.900,160,125,72
401932.210,5755862.780,77.920,162,127,74
401932.280,5755862.850,77.880,162,127,73
401932.340,5755862.910,77.870,163,126,73
401932.400,5755862.990,77.910,166,128,75
401932.460,5755863.060,77.920,171,131,77
401932.520,5755863.130,77.910,169,129,76
401932.280,5755862.710,77.880,161,127,76
401932.340,5755862.790,77.900,163,128,75
401932.410,5755862.850,77.890,163,126,73
401932.460,5755862.930,77.920,163,126,74
401932.530,5755863.000,77.930,162,123,74
401932.590,5755863.080,77.940,161,123,75
401932.410,5755862.730,77.880,150,118,72
401932.480,5755862.800,77.880,153,119,72
401932.530,5755862.870,77.920,155,119,73
401932.600,5755862.940,77.920,157,120,75
401932.660,5755863.010,77.940,159,122,75
401932.720,5755863.090,77.950,153,117,72
401932.480,5755862.670,77.870,118,95,60
401932.540,5755862.740,77.890,130,102,64
401932.600,5755862.810,77.930,146,113,72
401932.660,5755862.890,77.970,150,116,73
401932.720,5755862.960,77.960,152,117,73
401932.790,5755863.020,77.950,150,116,73
401932.850,5755863.090,77.940,145,112,71
401932.610,5755862.680,77.940,106,86,57
401932.670,5755862.750,77.950,125,99,65
401932.730,5755862.830,77.980,128,100,64
401932.790,5755862.900,77.980,130,101,63
401932.850,5755862.960,77.960,139,108,68
401932.920,5755863.030,77.940,139,108,70
401932.980,5755863.090,77.930,142,113,77
401932.740,5755862.690,77.930,112,90,62
401932.800,5755862.760,77.960,122,96,65
401932.860,5755862.830,77.970,120,94,61
401932.920,5755862.900,77.950,133,104,67
401932.990,5755862.960,77.940,144,113,76
401933.050,5755863.030,77.930,157,127,91
401933.100,5755863.100,77.930,152,126,87
401932.860,5755862.700,77.970,121,96,66
401932.930,5755862.770,77.980,133,106,69
401932.990,5755862.840,77.960,134,108,68
401933.050,5755862.900,77.960,130,108,67
401933.110,5755862.980,77.970,133,113,72
401933.160,5755863.050,78.010,128,112,69
401933.000,5755862.710,77.970,133,109,69
401933.050,5755862.790,78.040,119,100,57
401933.110,5755862.850,78.030,111,105,53
401933.180,5755862.920,78.020,112,109,56
401933.240,5755862.990,78.040,111,108,56
401933.290,5755863.060,78.040,109,116,55
401933.120,5755862.720,77.990,106,99,50
401933.170,5755862.800,78.070,114,116,55
401933.240,5755862.860,78.070,116,122,56
401933.300,5755862.930,78.060,118,127,59
401933.350,5755863.010,78.110,112,127,57
401933.400,5755863.080,78.120,108,128,54
401933.190,5755862.660,78.010,114,118,55
401933.240,5755862.740,78.110,120,130,60
401933.300,5755862.810,78.120,127,139,65
401933.360,5755862.880,78.110,128,145,66
401933.420,5755862.940,78.070,118,139,58
401933.460,5755863.020,78.180,113,136,55
401933.540,5755863.080,78.100,120,144,59
401933.300,5755862.680,78.120,143,156,75
401933.370,5755862.750,78.130,143,158,76
401933.440,5755862.810,78.060,137,155,72
401933.490,5755862.880,78.070,126,145,65
401933.540,5755862.950,78.120,109,132,54
401933.600,5755863.020,78.110,111,134,53
401933.440,5755862.680,78.090,119,138,58
401933.500,5755862.750,78.100,113,134,56
401933.550,5755862.820,78.090,104,125,52
401933.600,5755862.910,78.180,100,124,49
401933.670,5755862.960,78.110,109,134,53
401933.710,5755863.050,78.240,107,130,49
401933.500,5755862.640,78.140,100,123,47
401933.560,5755862.710,78.170,93,118,45
401933.610,5755862.780,78.170,90,116,43
401933.660,5755862.850,78.240,100,127,49
401933.730,5755862.910,78.160,118,144,59
401933.780,5755862.990,78.250,114,138,54
401933.840,5755863.060,78.270,118,141,57
401933.620,5755862.660,78.230,101,126,49
401933.680,5755862.720,78.220,100,125,45
401933.720,5755862.800,78.260,110,134,50
401933.790,5755862.860,78.230,120,145,57
401933.840,5755862.940,78.290,120,143,54
401933.900,5755863.010,78.310,126,148,64
401933.960,5755863.080,78.310,109,135,54
401933.740,5755862.670,78.270,106,129,46
401933.790,5755862.740,78.290,115,136,51
401933.850,5755862.810,78.280,124,144,58
401933.910,5755862.880,78.300,123,142,55
401933.970,5755862.940,78.300,125,146,60
401934.030,5755863.010,78.300,125,150,64
401934.090,5755863.080,78.320,120,146,60
401933.850,5755862.680,78.300,128,145,60
401933.920,5755862.740,78.270,127,141,57
401933.980,5755862.820,78.300,129,144,60
401934.040,5755862.880,78.310,124,143,60
401934.080,5755862.970,78.420,127,149,63
401934.150,5755863.030,78.390,121,143,56
401933.920,5755862.620,78.300,120,138,55
401933.980,5755862.680,78.290,112,128,47
401934.040,5755862.750,78.300,120,138,54
401934.110,5755862.820,78.300,122,143,59
401934.170,5755862.890,78.300,120,142,56
401934.210,5755862.970,78.390,119,141,56
401934.280,5755863.040,78.380,113,134,52
401934.040,5755862.640,78.380,109,131,47
401934.100,5755862.710,78.390,120,143,57
401934.160,5755862.770,78.380,121,144,59
401934.270,5755862.920,78.470,113,133,52
401934.330,5755862.990,78.470,119,134,57
401934.380,5755863.060,78.520,119,136,60
401934.160,5755862.640,78.390,111,134,50
401934.230,5755862.710,78.390,108,130,47
401934.320,5755862.870,78.520,109,128,49
401934.380,5755862.930,78.530,123,134,58
401934.440,5755863.010,78.570,134,144,67
401934.270,5755862.670,78.500,96,118,40
401934.460,5755862.870,78.500,99,116,42
401934.510,5755862.940,78.550,109,123,49
401934.570,5755863.010,78.560,124,136,58
401934.340,5755862.610,78.530,87,110,36
401934.400,5755862.680,78.520,99,122,45
401934.460,5755862.740,78.510,91,114,40
401934.520,5755862.810,78.520,82,105,33
401934.570,5755862.880,78.570,82,103,33
401934.630,5755862.960,78.580,88,103,38
401934.690,5755863.030,78.590,104,117,47
401934.470,5755862.620,78.520,101,120,48
401934.530,5755862.690,78.520,94,113,44
401934.590,5755862.760,78.530,85,107,38
401934.640,5755862.840,78.580,91,111,42
401934.690,5755862.910,78.600,81,97,38
401934.740,5755862.980,78.670,83,95,37
401934.790,5755863.060,78.740,78,92,35
401934.590,5755862.640,78.560,68,92,32
401934.640,5755862.710,78.570,65,88,31
401934.700,5755862.780,78.600,69,89,33
401934.760,5755862.850,78.620,65,82,30
401934.800,5755862.930,78.710,57,71,25
401934.860,5755863.000,78.740,59,75,28
401934.710,5755862.650,78.600,48,71,25
401934.760,5755862.720,78.630,44,64,24
401934.820,5755862.790,78.670,44,62,23
401934.860,5755862.870,78.750,49,66,25
401934.920,5755862.940,78.750,57,73,28
401934.980,5755863.010,78.780,61,75,27
401934.760,5755862.600,78.660,40,63,23
401934.810,5755862.670,78.700,39,61,24
401934.870,5755862.740,78.730,42,63,25
401934.930,5755862.810,78.750,49,70,28
401934.980,5755862.880,78.770,51,69,24
401935.030,5755862.960,78.860,56,74,27
401935.080,5755863.030,78.870,71,86,34
401934.850,5755862.630,78.850,37,60,23
401934.910,5755862.700,78.850,47,69,28
401934.970,5755862.770,78.890,57,80,34
401935.020,5755862.840,78.910,52,73,26
401935.080,5755862.910,78.940,70,87,36
401935.140,5755862.980,78.930,89,104,47
401935.190,5755863.050,78.940,77,90,35
401934.960,5755862.660,78.960,43,66,25
401935.020,5755862.720,78.960,57,81,33
401935.130,5755862.860,79.010,78,96,40
401935.190,5755862.930,78.990,98,113,51
401935.250,5755862.990,78.990,79,93,37
401935.240,5755862.870,79.050,74,97,36
401935.310,5755862.940,79.040,79,97,38
401935.370,5755863.000,79.030,102,114,53
401935.240,5755862.750,79.080,69,94,33
401935.300,5755862.820,79.090,78,101,37
401935.360,5755862.890,79.090,92,110,45
401935.420,5755862.950,79.090,111,124,56
401935.480,5755863.020,79.090,105,118,53
401935.360,5755862.770,79.110,74,98,34
401935.430,5755862.840,79.090,84,103,39
401935.490,5755862.900,79.090,95,111,43
401935.550,5755862.970,79.100,90,108,42
401935.360,5755862.650,79.130,79,102,41
401935.430,5755862.710,79.120,82,107,43
401935.490,5755862.780,79.090,78,102,37
401935.550,5755862.840,79.100,84,105,38
401935.610,5755862.910,79.100,82,103,38
401935.680,5755862.970,79.080,89,109,45
401935.420,5755862.600,79.170,99,121,56
401935.490,5755862.660,79.120,101,125,55
401935.550,5755862.720,79.110,86,113,46
401935.620,5755862.780,79.100,88,113,46
401935.670,5755862.850,79.120,90,111,47
401935.740,5755862.920,79.100,87,108,46
401935.790,5755862.980,79.100,89,109,50
401935.560,5755862.600,79.130,94,116,49
401935.620,5755862.660,79.130,82,106,43
401935.670,5755862.730,79.140,77,102,43
401935.720,5755862.800,79.180,73,99,39
401935.780,5755862.870,79.180,65,88,33
401935.680,5755862.600,79.130,70,95,38
401935.740,5755862.670,79.140,56,82,30
401935.790,5755862.740,79.180,58,84,34
401935.860,5755862.800,79.150,51,75,29
401935.910,5755862.870,79.150,69,93,41
401935.970,5755862.940,79.150,60,84,34
401936.020,5755863.010,79.170,57,80,31
401935.790,5755862.620,79.200,67,94,40
401935.840,5755862.690,79.260,64,91,40
401935.890,5755862.760,79.290,58,84,36
401935.950,5755862.830,79.300,65,90,40
401936.020,5755862.880,79.210,61,83,36
401936.080,5755862.950,79.220,56,79,33
401935.830,5755862.580,79.310,77,102,46
401935.890,5755862.640,79.310,89,117,58
401935.950,5755862.710,79.330,92,120,60
401936.010,5755862.780,79.330,75,99,46
401936.050,5755862.840,79.340,72,93,45
401936.110,5755862.910,79.360,69,92,44
401936.190,5755862.960,79.260,68,94,44
401935.950,5755862.590,79.330,88,110,51
401936.010,5755862.650,79.350,85,109,50
401936.070,5755862.720,79.350,72,94,45
401936.120,5755862.780,79.330,80,99,51
401936.180,5755862.850,79.340,76,99,47
401936.240,5755862.910,79.330,82,108,53
401936.310,5755862.980,79.310,86,112,55
401936.070,5755862.600,79.380,60,82,37
401936.120,5755862.670,79.390,64,85,42
401936.180,5755862.730,79.370,61,79,37
401936.230,5755862.800,79.390,69,89,44
401936.290,5755862.860,79.380,90,111,53
401936.350,5755862.930,79.390,91,114,55
401936.400,5755863.000,79.410,97,120,63
401936.130,5755862.540,79.380,65,87,42
401936.250,5755862.670,79.390,56,74,36
401936.280,5755862.750,79.470,52,69,34
401936.390,5755862.880,79.490,92,114,57
401936.450,5755862.950,79.500,107,130,74
401936.250,5755862.550,79.390,89,104,59
401936.310,5755862.610,79.400,82,96,54
401936.460,5755862.830,79.490,88,110,59
401936.800,5755862.990,79.580,93,115,57
401936.510,5755862.550,79.620,76,97,44
401936.750,5755862.800,79.580,91,117,58
401936.810,5755862.870,79.580,91,115,55
401936.870,5755862.930,79.570,87,109,50
401936.620,5755862.550,79.620,72,95,43
401936.680,5755862.620,79.610,72,96,44
401936.750,5755862.680,79.580,76,100,47
401936.810,5755862.740,79.570,87,112,55
401936.880,5755862.800,79.540,83,108,48
401936.960,5755862.860,79.490,88,109,50
401937.000,5755862.930,79.540,99,122,60
401936.750,5755862.560,79.620,63,90,42
401936.810,5755862.620,79.610,57,82,35
401936.870,5755862.680,79.590,63,89,37
401936.940,5755862.750,79.570,75,102,45
401937.010,5755862.810,79.550,90,115,55
401937.050,5755862.880,79.580,99,121,59
401937.110,5755862.940,79.570,109,130,64
401936.860,5755862.570,79.660,60,88,42
401936.930,5755862.630,79.630,70,98,47
401936.990,5755862.690,79.620,84,112,56
401937.060,5755862.760,79.580,98,123,64
401937.110,5755862.820,79.600,106,128,66
401937.170,5755862.890,79.600,120,139,75
401937.220,5755862.960,79.630,114,136,65
401936.980,5755862.580,79.680,79,107,55
401937.040,5755862.640,79.670,88,116,61
401937.160,5755862.770,79.640,101,126,59
401937.230,5755862.830,79.630,106,128,62
401937.280,5755862.900,79.660,105,128,61
401937.340,5755862.970,79.660,96,119,51
401937.230,5755862.710,79.660,98,126,60
401937.290,5755862.770,79.630,94,121,57
401937.340,5755862.840,79.650,94,116,55
401937.410,5755862.910,79.640,95,118,55
401937.470,5755862.970,79.630,101,125,61
401937.220,5755862.600,79.700,95,122,60
401937.290,5755862.650,79.640,110,136,74
401937.360,5755862.720,79.630,103,129,67
401937.410,5755862.790,79.660,84,110,53
401937.470,5755862.850,79.660,93,117,58
401937.530,5755862.910,79.660,114,136,75
401937.280,5755862.540,79.700,107,131,72
401937.350,5755862.600,79.670,104,125,66
401937.430,5755862.650,79.610,93,116,56
401937.480,5755862.720,79.650,103,128,69
401937.540,5755862.790,79.640,99,124,61
401937.600,5755862.850,79.640,113,136,71
401937.660,5755862.910,79.610,107,131,65
401937.400,5755862.560,79.730,80,102,47
401937.460,5755862.620,79.730,89,112,55
401937.540,5755862.680,79.660,99,124,64
401937.600,5755862.740,79.640,100,125,64
401937.660,5755862.810,79.650,104,127,65
401937.730,5755862.870,79.620,101,125,62
401937.790,5755862.920,79.570,93,117,51
401937.510,5755862.570,79.770,96,114,59
401937.610,5755862.620,79.650,98,120,62
401937.670,5755862.680,79.640,93,117,57
401937.730,5755862.750,79.640,81,105,45
401937.780,5755862.810,79.650,81,103,44
401937.840,5755862.880,79.660,82,104,43
401937.890,5755862.940,79.660,78,104,41
401937.670,5755862.560,79.670,101,121,65
401937.720,5755862.630,79.670,100,121,63
401937.780,5755862.690,79.670,85,107,49
401937.850,5755862.750,79.650,78,100,43
401937.910,5755862.820,79.640,72,95,35
401937.730,5755862.500,79.690,94,114,61
401937.780,5755862.570,79.700,90,110,54
401937.840,5755862.630,79.690,84,104,45
401937.910,5755862.700,79.670,76,98,40
401937.970,5755862.760,79.650,89,112,49
401938.500,5755862.860,79.710,129,147,78
401938.560,5755862.920,79.700,131,150,81
401938.340,5755862.540,79.710,105,125,57
401938.390,5755862.600,79.710,105,126,54
401938.580,5755862.790,79.650,142,158,86
401938.390,5755862.480,79.730,107,129,61
401938.440,5755862.550,79.750,115,135,66
401938.510,5755862.610,79.700,129,148,74
401938.660,5755862.720,79.610,131,149,73
401938.770,5755862.860,79.630,156,163,96
401938.490,5755862.500,79.790,116,135,68
401938.560,5755862.550,79.740,127,144,73
401938.640,5755862.610,79.690,123,141,68
401938.700,5755862.670,79.680,129,146,74
401938.780,5755862.730,79.630,135,147,76
401938.830,5755862.800,79.640,145,151,81
401938.880,5755862.870,79.680,147,150,84
401938.630,5755862.490,79.730,123,141,70
401938.700,5755862.560,79.720,127,146,72
401938.750,5755862.630,79.740,126,140,69
401938.810,5755862.690,79.730,137,147,79
401938.890,5755862.740,79.680,145,150,83
401938.950,5755862.810,79.680,148,149,85
401939.020,5755862.870,79.640,147,145,83
401938.750,5755862.510,79.750,133,152,73
401938.810,5755862.580,79.750,129,144,71
401938.890,5755862.630,79.690,150,154,86
401938.950,5755862.700,79.690,158,157,88
401939.030,5755862.750,79.610,161,158,93
401939.090,5755862.820,79.610,151,149,83
401939.150,5755862.880,79.620,150,147,79
401939.000,5755862.550,79.570,150,155,81
401939.060,5755862.620,79.550,153,152,82
401939.130,5755862.680,79.520,165,160,94
401939.180,5755862.750,79.560,156,153,86
401939.220,5755862.820,79.590,148,148,80
401939.270,5755862.890,79.620,155,153,83
401939.090,5755862.480,79.500,148,153,81
401939.150,5755862.550,79.480,146,148,78
401939.220,5755862.610,79.470,160,157,89
401939.260,5755862.680,79.500,145,146,76
401939.320,5755862.750,79.520,141,146,73
401939.350,5755862.820,79.580,142,148,74
401939.400,5755862.890,79.620,154,155,82
401939.130,5755862.440,79.570,153,155,87
401939.200,5755862.490,79.530,152,152,82
401939.260,5755862.560,79.530,155,154,85
401939.320,5755862.620,79.510,140,144,74
401939.380,5755862.690,79.510,136,144,68
401939.410,5755862.770,79.590,136,145,71
401939.340,5755862.500,79.500,138,140,72
401939.390,5755862.560,79.520,129,136,63
401939.440,5755862.630,79.550,133,140,65
401939.460,5755862.710,79.630,133,140,70
401939.640,5755862.900,79.590,143,145,66
401939.460,5755862.500,79.490,123,128,54
401939.510,5755862.570,79.530,117,126,50
401939.530,5755862.650,79.620,127,135,63
401939.530,5755862.440,79.490,113,116,46
401939.560,5755862.520,79.560,110,119,46
401939.600,5755862.590,79.610,119,128,54
401939.660,5755862.450,79.480,98,109,39
401939.690,5755862.520,79.540,120,128,55
401939.740,5755862.590,79.580,131,134,62
401939.940,5755862.770,79.480,135,138,62
401939.980,5755862.850,79.540,130,138,59
401939.820,5755862.440,79.390,112,120,50
401939.840,5755862.520,79.470,135,138,64
401939.910,5755862.570,79.440,139,139,62
401939.940,5755862.650,79.500,143,145,66
401939.930,5755862.450,79.410,122,124,56
401939.970,5755862.520,79.440,131,135,59
401940.020,5755862.590,79.470,134,140,60
401940.030,5755862.460,79.470,124,130,52
401940.080,5755862.530,79.500,133,139,60
401940.110,5755862.600,79.540,132,139,56
401940.180,5755862.670,79.510,132,138,54
401940.240,5755862.730,79.520,130,141,55
401940.310,5755862.790,79.500,130,144,55
401940.370,5755862.860,79.480,124,140,44
401940.160,5755862.460,79.450,130,139,58
401940.210,5755862.530,79.460,125,135,52
401940.280,5755862.590,79.440,116,127,42
401940.320,5755862.670,79.490,120,131,43
401940.380,5755862.730,79.470,128,143,51
401940.450,5755862.790,79.450,131,147,51
401940.510,5755862.860,79.450,136,152,54
401940.280,5755862.470,79.460,122,133,48
401940.350,5755862.530,79.430,122,134,48
401940.390,5755862.600,79.470,124,136,47
401940.460,5755862.670,79.450,129,142,52
401940.530,5755862.730,79.430,135,146,56
401940.590,5755862.790,79.410,129,142,49
401940.680,5755862.850,79.340,133,144,54
401940.360,5755862.420,79.420,117,131,46
401940.420,5755862.480,79.430,132,144,58
401940.470,5755862.550,79.430,129,142,51
401940.530,5755862.610,79.430,129,138,49
401940.600,5755862.680,79.410,125,134,47
401940.660,5755862.740,79.410,116,130,40
401940.740,5755862.800,79.350,117,131,40
401940.810,5755862.860,79.320,132,146,63
401940.480,5755862.430,79.450,129,140,55
401940.530,5755862.490,79.440,132,142,52
401940.600,5755862.550,79.410,123,134,44
401940.660,5755862.620,79.410,112,128,38
401940.720,5755862.690,79.420,109,126,36
401940.800,5755862.740,79.360,114,131,41
401940.910,5755862.790,79.260,143,158,74
401940.980,5755862.850,79.210,149,161,79
401940.560,5755862.450,79.530,121,133,44
401940.640,5755862.510,79.490,119,134,42
401940.720,5755862.560,79.430,119,137,44
401940.780,5755862.630,79.440,118,136,38
401940.870,5755862.680,79.350,121,141,48
401940.970,5755862.730,79.260,145,162,77
401941.050,5755862.790,79.210,157,168,84
401941.130,5755862.840,79.130,174,181,97
401940.780,5755862.510,79.460,112,129,34
401940.930,5755862.620,79.370,131,153,58
401941.030,5755862.670,79.270,147,165,81
401941.110,5755862.730,79.220,159,168,84
401941.200,5755862.780,79.130,175,178,96
401940.860,5755862.440,79.420,115,129,35
401940.950,5755862.490,79.350,126,144,37
401941.000,5755862.560,79.350,134,153,50
401941.090,5755862.620,79.290,153,166,78
401941.170,5755862.680,79.250,159,165,83
401941.240,5755862.730,79.180,173,173,94
401941.320,5755862.790,79.140,182,176,102
401940.930,5755862.380,79.400,117,132,32
401941.020,5755862.430,79.320,123,142,27
401941.100,5755862.490,79.290,134,153,46
401941.170,5755862.550,79.260,146,156,67
401941.250,5755862.610,79.220,159,161,82
401941.300,5755862.680,79.210,171,168,92
401941.380,5755862.730,79.160,173,165,93
401941.420,5755862.810,79.200,165,152,87
401941.170,5755862.430,79.270,140,155,61
401941.240,5755862.490,79.240,140,150,64
401941.320,5755862.550,79.190,152,156,75
401941.390,5755862.610,79.160,164,162,86
401941.450,5755862.670,79.150,157,150,80
401941.500,5755862.740,79.180,147,140,75
401941.560,5755862.810,79.170,140,136,75
401941.240,5755862.370,79.260,155,165,82
401941.320,5755862.430,79.210,161,169,90
401941.400,5755862.480,79.170,159,165,88
401941.460,5755862.550,79.140,155,156,82
401941.490,5755862.620,79.200,141,142,72
401941.560,5755862.680,79.180,144,143,74
401941.620,5755862.750,79.180,133,133,64
401941.680,5755862.820,79.190,114,116,52
401941.470,5755862.420,79.160,167,169,101
401941.530,5755862.480,79.130,156,157,87
401941.560,5755862.560,79.210,144,145,74
401941.630,5755862.620,79.190,143,142,70
401941.680,5755862.690,79.200,126,129,59
401941.730,5755862.760,79.220,111,115,49
401941.780,5755862.830,79.240,105,111,44
401941.540,5755862.360,79.150,166,164,102
401941.590,5755862.430,79.140,157,156,92
401941.640,5755862.500,79.180,143,143,76
401941.690,5755862.570,79.190,132,134,67
401941.740,5755862.640,79.230,120,126,58
401941.790,5755862.710,79.250,102,109,41
401941.820,5755862.780,79.310,99,108,38
401941.650,5755862.370,79.160,160,155,92
401941.690,5755862.440,79.200,144,143,78
401941.750,5755862.510,79.210,128,133,66
401941.790,5755862.580,79.250,106,113,50
401941.830,5755862.650,79.290,83,96,35
401941.880,5755862.720,79.310,90,106,34
401941.940,5755862.790,79.320,83,101,27
401941.750,5755862.380,79.210,137,137,74
401941.810,5755862.450,79.230,126,131,65
401941.850,5755862.520,79.260,93,105,43
401941.900,5755862.590,79.280,73,92,32
401941.960,5755862.660,79.280,89,107,34
401942.010,5755862.730,79.310,96,110,30
401941.870,5755862.390,79.220,107,116,45
401941.920,5755862.470,79.260,86,103,34
401941.970,5755862.540,79.280,77,99,30
401942.010,5755862.610,79.310,92,110,37
401942.060,5755862.680,79.350,100,113,32
401941.980,5755862.420,79.280,85,103,30
401942.000,5755862.490,79.360,85,107,27
401942.070,5755862.560,79.350,99,120,32
401942.110,5755862.630,79.380,105,118,32
401942.040,5755862.360,79.270,89,106,28
401942.060,5755862.440,79.380,92,115,29
401942.120,5755862.380,79.390,107,128,36
401942.330,5755862.650,79.440,106,109,43
401942.380,5755862.720,79.460,109,114,44
401942.440,5755862.790,79.470,104,112,37
401942.250,5755862.380,79.370,106,122,26
401942.560,5755862.790,79.470,130,134,49
401942.360,5755862.390,79.400,104,114,32
401942.880,5755862.740,79.460,109,119,39
401942.880,5755862.620,79.470,122,133,53
401942.960,5755862.680,79.420,124,140,50
401943.040,5755862.740,79.390,129,149,54
401942.960,5755862.560,79.440,115,126,41
401943.030,5755862.620,79.410,130,145,55
401943.110,5755862.680,79.380,151,167,78
401943.190,5755862.730,79.310,172,178,99
401942.910,5755862.360,79.440,119,134,36
401942.960,5755862.430,79.450,124,138,40
401943.040,5755862.490,79.410,121,134,39
401943.110,5755862.560,79.400,134,145,54
401943.170,5755862.620,79.390,164,172,91
401943.240,5755862.680,79.340,174,176,100
401943.330,5755862.740,79.290,186,186,109
401943.060,5755862.360,79.390,137,143,53
401943.130,5755862.420,79.360,139,147,55
401943.190,5755862.490,79.360,147,158,65
401943.250,5755862.550,79.350,176,182,100
401943.330,5755862.610,79.300,179,180,105
401943.410,5755862.670,79.250,179,180,103
401943.490,5755862.730,79.210,181,180,105
401943.130,5755862.310,79.380,132,135,53
401943.200,5755862.370,79.350,146,151,66
401943.260,5755862.440,79.360,168,174,85
401943.320,5755862.500,79.320,183,184,99
401943.410,5755862.560,79.270,180,180,101
401943.500,5755862.610,79.210,176,177,100
401943.590,5755862.670,79.130,170,167,94
401943.650,5755862.740,79.150,177,172,101
401943.280,5755862.310,79.340,147,155,64
401943.350,5755862.370,79.310,170,173,88
401943.410,5755862.430,79.280,171,170,87
401943.500,5755862.490,79.220,173,172,92
401943.600,5755862.540,79.140,170,167,89
401943.670,5755862.600,79.110,155,153,79
401943.720,5755862.670,79.130,173,170,97
401943.810,5755862.730,79.080,184,176,106
401943.430,5755862.310,79.280,165,173,89
401943.490,5755862.370,79.260,163,167,87
401943.590,5755862.420,79.180,165,166,86
401943.660,5755862.480,79.140,148,145,70
401943.730,5755862.550,79.130,148,148,74
401943.790,5755862.610,79.140,175,171,97
401943.870,5755862.670,79.090,180,168,99
401943.880,5755862.760,79.200,160,147,89
401943.570,5755862.300,79.230,171,174,93
401943.650,5755862.360,79.190,140,139,63
401943.710,5755862.430,79.170,114,118,45
401943.790,5755862.490,79.150,143,150,70
401943.840,5755862.560,79.160,166,165,87
401943.920,5755862.620,79.130,163,153,85
401943.940,5755862.700,79.190,144,140,80
401943.720,5755862.300,79.190,113,116,41
401943.780,5755862.370,79.180,113,123,43
401943.840,5755862.430,79.170,144,151,68
401943.900,5755862.500,79.170,152,152,75
401943.950,5755862.570,79.200,142,140,73
401944.010,5755862.630,79.190,130,132,72
401944.050,5755862.710,79.240,99,105,48
401943.850,5755862.310,79.170,131,143,57
401943.910,5755862.370,79.170,153,159,79
401943.980,5755862.440,79.160,152,153,81
401944.010,5755862.510,79.200,126,128,64
401944.070,5755862.580,79.200,120,124,64
401944.110,5755862.650,79.240,95,103,45
401944.140,5755862.720,79.300,78,92,28
401943.990,5755862.310,79.150,164,169,88
401944.050,5755862.370,79.130,157,158,85
401944.080,5755862.450,79.200,129,132,66
401944.130,5755862.520,79.220,112,121,51
401944.160,5755862.600,79.280,97,111,37
401944.110,5755862.320,79.150,144,146,70
401944.140,5755862.390,79.220,131,134,62
401944.190,5755862.460,79.220,103,115,38
401944.270,5755862.520,79.180,92,111,24
401944.300,5755862.600,79.250,97,117,20
401944.310,5755862.680,79.340,110,129,20
401944.240,5755862.320,79.140,132,136,57
401944.310,5755862.380,79.120,97,112,27
401944.360,5755862.450,79.150,98,118,20
401944.360,5755862.540,79.260,109,128,19
401944.380,5755862.620,79.340,117,133,24
401944.290,5755862.270,79.180,118,128,37
401944.350,5755862.330,79.180,100,120,20
401944.390,5755862.400,79.210,107,130,14
401944.390,5755862.490,79.330,116,137,19
401944.490,5755862.630,79.370,127,137,36
401944.380,5755862.280,79.240,108,130,23
401944.420,5755862.360,79.280,113,135,16
401944.710,5755862.690,79.290,119,132,29
401944.460,5755862.300,79.320,117,136,24
401944.580,5755862.450,79.340,119,134,34
401944.630,5755862.520,79.350,130,141,44
401944.680,5755862.580,79.360,127,138,37
401944.740,5755862.650,79.360,119,132,30
401944.800,5755862.710,79.360,120,134,31
401944.640,5755862.390,79.340,118,134,27
401944.810,5755862.590,79.360,120,135,27
401944.880,5755862.650,79.330,116,131,22
401944.980,5755862.700,79.250,110,129,20
401944.760,5755862.390,79.350,111,127,14
401944.830,5755862.460,79.340,108,124,9
401944.890,5755862.520,79.330,112,130,12
401944.960,5755862.580,79.300,115,132,19
401945.040,5755862.640,79.260,111,130,22
401945.050,5755862.720,79.350,106,125,22
401944.780,5755862.270,79.330,109,126,17
401944.850,5755862.330,79.320,101,119,10
401944.910,5755862.400,79.310,98,116,9
401944.960,5755862.460,79.330,99,118,11
401945.010,5755862.530,79.320,109,126,19
401945.090,5755862.590,79.290,110,128,22
401945.150,5755862.650,79.290,104,121,21
401945.230,5755862.710,79.240,98,115,18
401944.920,5755862.270,79.300,103,122,16
401944.970,5755862.340,79.310,101,121,14
401945.030,5755862.400,79.320,98,118,13
401945.080,5755862.470,79.310,99,117,13
401945.160,5755862.530,79.280,99,118,16
401945.200,5755862.600,79.310,97,119,21
401945.250,5755862.670,79.340,103,124,22
401945.030,5755862.280,79.330,108,127,21
401945.090,5755862.340,79.330,102,124,14
401945.140,5755862.410,79.340,98,119,13
401945.210,5755862.470,79.300,87,112,10
401945.270,5755862.540,79.310,89,114,18
401945.320,5755862.610,79.320,96,118,19
401945.380,5755862.670,79.330,101,124,14
401945.150,5755862.290,79.340,103,126,13
401945.230,5755862.340,79.280,104,126,15
401945.290,5755862.410,79.280,100,123,16
401945.340,5755862.480,79.300,89,110,14
401945.380,5755862.550,79.340,84,103,20
401945.430,5755862.620,79.350,93,113,21
401945.510,5755862.680,79.320,101,123,16
401945.290,5755862.290,79.300,103,127,10
401945.330,5755862.350,79.320,101,121,14
401945.390,5755862.420,79.330,88,111,10
401945.440,5755862.490,79.350,78,104,12
401945.490,5755862.560,79.360,85,111,17
401945.560,5755862.620,79.340,96,121,15
401945.390,5755862.300,79.330,94,115,12
401945.440,5755862.370,79.360,89,112,11
401945.500,5755862.430,79.360,81,106,11
401945.550,5755862.500,79.370,93,117,16
401945.440,5755862.240,79.370,93,115,14
401945.490,5755862.310,79.390,93,113,12
401945.540,5755862.380,79.400,91,113,14
401945.570,5755862.250,79.350,94,112,15
401945.220,5755862.240,79.350,102,132,40
401945.150,5755862.280,79.360,101,131,38
401945.090,5755862.350,79.350,102,133,39
401945.030,5755862.290,79.350,112,138,47
401945.020,5755862.410,79.340,96,128,32
401944.970,5755862.360,79.330,102,130,34
401944.910,5755862.280,79.340,105,134,40
