//X,Y,Z,R,G,B
401894.890,5755903.900,79.320,109,118,35
401894.950,5755903.960,79.340,124,129,38
401894.610,5755903.400,79.490,142,155,90
401894.650,5755903.500,79.400,136,154,76
401894.700,5755903.580,79.360,146,167,78
401894.760,5755903.650,79.340,151,168,77
401894.820,5755903.720,79.310,136,147,63
401894.880,5755903.790,79.290,104,115,38
401894.670,5755903.350,79.470,122,139,71
401894.710,5755903.440,79.390,116,136,60
401894.770,5755903.510,79.360,135,153,70
401894.830,5755903.580,79.350,146,160,73
401894.720,5755903.220,79.500,106,137,76
401894.710,5755903.330,79.470,102,131,66
401894.660,5755903.300,79.520,113,142,84
401894.600,5755903.240,79.530,113,139,79
401894.530,5755903.200,79.560,102,131,66
401894.770,5755903.530,79.490,96,128,56
401894.710,5755903.460,79.470,104,133,66
401894.650,5755903.400,79.480,112,135,74
401894.590,5755903.360,79.520,121,144,89
401894.530,5755903.300,79.530,125,146,88
401894.470,5755903.250,79.560,107,129,66
401894.780,5755903.560,79.320,119,151,77
401894.710,5755903.580,79.480,110,143,70
401894.650,5755903.520,79.480,118,148,83
401894.580,5755903.460,79.490,125,148,89
401894.530,5755903.420,79.520,115,140,80
401894.470,5755903.360,79.520,116,140,80
401894.410,5755903.310,79.560,108,130,69
401894.340,5755903.270,79.590,80,107,44
401894.720,5755903.640,79.360,114,150,78
401894.640,5755903.660,79.500,119,154,84
401894.580,5755903.590,79.500,124,157,89
401894.520,5755903.530,79.500,126,154,88
401894.470,5755903.480,79.520,114,141,77
401894.410,5755903.410,79.520,112,136,76
401894.350,5755903.360,79.530,106,131,70
401894.280,5755903.320,79.570,90,118,54
401894.950,5755904.030,79.370,65,93,28
401894.900,5755903.940,79.320,80,106,41
401894.840,5755903.880,79.340,108,132,64
401894.770,5755903.830,79.360,125,151,83
401894.710,5755903.780,79.380,121,152,82
401894.640,5755903.780,79.490,111,147,78
401894.580,5755903.720,79.500,108,146,78
401894.520,5755903.650,79.500,112,149,78
401894.460,5755903.590,79.490,130,161,91
401894.410,5755903.520,79.490,114,140,72
401894.350,5755903.460,79.490,98,121,59
401895.010,5755904.210,79.370,97,121,52
401894.950,5755904.160,79.380,88,110,42
401894.890,5755904.070,79.340,85,108,39
401894.840,5755904.000,79.320,103,127,57
401894.770,5755903.940,79.330,118,145,73
401894.700,5755903.930,79.420,116,146,75
401894.640,5755903.870,79.440,105,137,67
401894.570,5755903.850,79.510,97,131,63
401894.510,5755903.790,79.520,89,128,56
401894.450,5755903.730,79.520,104,140,70
401894.390,5755903.650,79.510,116,149,82
401895.070,5755904.360,79.280,104,128,60
401895.010,5755904.340,79.370,100,124,54
401894.950,5755904.260,79.350,96,120,50
401894.690,5755904.090,79.500,111,141,69
401894.630,5755904.030,79.500,105,136,64
401894.570,5755903.980,79.520,99,129,64
401894.510,5755903.930,79.550,89,120,58
401894.440,5755903.870,79.560,95,132,70
401895.070,5755904.440,79.230,98,118,61
401895.010,5755904.380,79.240,97,115,58
401894.960,5755904.330,79.260,92,113,49
401894.890,5755904.280,79.280,87,111,43
401894.830,5755904.250,79.350,108,130,58
401894.690,5755904.180,79.460,104,132,61
401894.630,5755904.110,79.440,110,141,73
401894.570,5755904.090,79.520,114,147,81
401895.180,5755904.750,79.330,88,116,52
401895.120,5755904.670,79.300,86,113,50
401895.060,5755904.590,79.270,73,97,40
401895.010,5755904.520,79.260,70,86,46
401894.950,5755904.450,79.240,77,92,50
401894.890,5755904.410,79.290,90,110,55
401894.830,5755904.320,79.250,100,123,59
401894.760,5755904.300,79.330,106,131,65
401894.630,5755904.260,79.490,110,143,80
401894.570,5755904.200,79.490,116,152,93
401895.050,5755904.760,79.360,89,116,58
401895.000,5755904.650,79.280,71,92,42
401894.940,5755904.600,79.310,65,75,37
401894.880,5755904.530,79.290,77,86,42
401894.820,5755904.480,79.320,94,111,54
401894.760,5755904.440,79.350,107,129,67
401894.690,5755904.420,79.440,109,135,73
401895.170,5755904.990,79.310,98,123,61
401895.110,5755904.940,79.350,97,124,63
401894.750,5755904.580,79.390,103,123,60
401894.690,5755904.540,79.420,105,126,65
401894.630,5755904.480,79.440,98,125,64
401895.100,5755905.080,79.370,108,134,71
401895.040,5755905.130,79.360,106,132,66
401895.410,5755905.580,79.240,127,150,76
401895.340,5755905.530,79.270,131,158,88
401895.290,5755905.480,79.300,127,154,87
401895.230,5755905.420,79.310,123,147,79
401895.160,5755905.360,79.320,103,131,56
401895.100,5755905.310,79.330,105,135,62
401895.040,5755905.250,79.340,119,149,80
401894.980,5755905.190,79.350,124,152,83
401895.460,5755905.790,79.280,124,147,79
401895.400,5755905.720,79.270,126,153,84
401895.340,5755905.650,79.250,130,157,89
401895.280,5755905.590,79.280,128,159,89
401895.230,5755905.540,79.290,124,156,89
401895.160,5755905.480,79.300,124,151,88
401895.100,5755905.420,79.310,114,138,70
401895.040,5755905.360,79.320,117,141,75
401894.980,5755905.300,79.330,111,142,73
401894.920,5755905.250,79.340,118,149,83
401895.460,5755905.910,79.280,127,153,81
401895.400,5755905.850,79.300,117,143,78
401895.330,5755905.790,79.300,117,145,81
401895.270,5755905.720,79.290,116,147,84
401895.210,5755905.670,79.300,112,148,81
401895.160,5755905.610,79.320,106,143,75
401895.100,5755905.550,79.320,106,136,70
401894.980,5755905.420,79.320,108,129,67
401894.920,5755905.360,79.320,103,131,65
401895.590,5755906.110,79.160,113,134,68
401895.530,5755906.060,79.210,117,142,73
401895.470,5755905.970,79.140,117,144,74
401895.390,5755905.980,79.300,113,142,74
401895.330,5755905.920,79.310,106,133,70
401895.270,5755905.860,79.310,107,133,70
401895.210,5755905.800,79.310,97,127,65
401895.150,5755905.740,79.320,85,122,60
401895.030,5755905.620,79.330,102,133,67
401894.970,5755905.550,79.330,93,118,56
401894.920,5755905.480,79.300,83,107,48
401895.590,5755906.210,79.120,113,129,65
401895.520,5755906.180,79.190,119,141,76
401895.460,5755906.130,79.210,112,138,71
401895.400,5755906.060,79.210,97,125,59
401895.330,5755906.050,79.310,99,128,66
401895.200,5755905.920,79.320,98,121,58
401895.710,5755906.490,79.170,95,121,65
401895.650,5755906.420,79.170,108,132,72
401895.580,5755906.360,79.170,115,139,73
401895.520,5755906.300,79.170,117,139,74
401895.450,5755906.260,79.230,114,139,75
401895.390,5755906.210,79.260,106,135,71
401895.330,5755906.160,79.300,98,128,65
401895.750,5755906.710,79.230,101,131,74
401895.680,5755906.660,79.260,96,128,72
401895.630,5755906.600,79.260,111,140,84
401895.570,5755906.530,79.270,116,143,81
401895.390,5755906.330,79.240,114,140,75
401895.320,5755906.290,79.290,102,132,70
401895.800,5755906.900,79.230,112,139,79
401895.740,5755906.830,79.220,96,125,64
401895.680,5755906.780,79.260,92,122,66
401895.620,5755906.720,79.260,102,134,79
401895.570,5755906.650,79.250,109,140,85
401895.320,5755906.390,79.260,115,143,79
401895.860,5755907.070,79.230,91,116,58
401895.800,5755907.020,79.250,93,117,61
401895.740,5755906.940,79.220,96,120,65
401895.680,5755906.890,79.240,87,113,58
401895.610,5755906.830,79.260,77,103,49
401895.560,5755906.760,79.250,94,122,68
401895.500,5755906.700,79.260,95,123,70
401895.380,5755906.570,79.250,121,147,82
401895.320,5755906.510,79.260,110,141,75
401895.260,5755906.460,79.270,104,134,70
401895.920,5755907.270,79.250,95,118,55
401895.860,5755907.200,79.240,92,114,57
401895.800,5755907.130,79.220,103,127,68
401895.740,5755907.060,79.210,103,128,66
401895.680,5755907.000,79.210,90,115,58
401895.620,5755906.940,79.230,109,135,80
401895.550,5755906.890,79.250,115,136,76
401895.490,5755906.820,79.230,100,124,65
401895.440,5755906.750,79.230,86,112,60
401895.380,5755906.700,79.260,87,111,56
401895.320,5755906.630,79.240,105,129,67
401895.260,5755906.570,79.240,97,124,65
401895.790,5755907.260,79.240,94,113,51
401895.730,5755907.200,79.240,106,131,69
401895.670,5755907.130,79.230,108,136,69
401895.620,5755907.050,79.190,106,134,76
401895.550,5755907.000,79.220,115,143,88
401895.490,5755906.930,79.220,116,139,76
401895.430,5755906.880,79.230,89,111,54
401895.380,5755906.810,79.230,71,94,44
401895.320,5755906.760,79.250,73,96,43
401895.990,5755907.520,79.090,107,129,60
401895.920,5755907.480,79.150,96,119,53
401895.610,5755907.190,79.230,98,130,61
401895.550,5755907.120,79.210,95,124,57
401895.500,5755907.010,79.100,88,116,53
401895.440,5755906.950,79.130,88,115,51
401895.370,5755906.920,79.180,81,96,41
401896.040,5755907.720,79.120,120,147,71
401895.990,5755907.660,79.130,119,143,68
401895.910,5755907.640,79.230,104,127,57
401895.850,5755907.570,79.220,102,126,62
401895.670,5755907.380,79.220,101,130,66
401895.550,5755907.250,79.230,98,126,59
401895.500,5755907.120,79.090,96,124,51
401895.440,5755907.060,79.090,89,116,50
401895.380,5755907.010,79.110,91,113,52
401896.100,5755907.910,79.130,110,138,71
401896.040,5755907.830,79.090,119,146,75
401895.970,5755907.790,79.140,117,145,78
401895.920,5755907.740,79.170,109,139,71
401895.850,5755907.680,79.180,102,131,62
401895.790,5755907.620,79.200,107,134,70
401895.730,5755907.560,79.210,97,123,61
401895.670,5755907.500,79.220,82,111,53
401895.480,5755907.310,79.220,92,117,55
401895.440,5755907.190,79.100,87,113,41
401896.210,5755908.160,79.130,109,130,66
401896.160,5755908.070,79.060,114,136,70
401896.100,5755908.020,79.080,110,135,67
401896.030,5755907.970,79.130,110,136,73
401895.970,5755907.920,79.150,117,141,77
401895.900,5755907.860,79.170,108,135,72
401895.860,5755907.770,79.100,91,123,63
401895.800,5755907.720,79.130,93,125,64
401895.730,5755907.660,79.150,93,120,60
401895.670,5755907.610,79.180,81,105,48
401895.610,5755907.540,79.170,64,91,39
401895.550,5755907.470,79.160,64,90,37
401895.490,5755907.410,79.170,78,102,46
401896.270,5755908.360,79.150,89,110,49
401896.210,5755908.280,79.120,96,121,52
401896.160,5755908.210,79.080,117,141,72
401896.100,5755908.140,79.070,126,146,84
401896.030,5755908.090,79.120,115,137,72
401895.970,5755908.030,79.120,113,136,76
401895.900,5755907.980,79.140,119,145,83
401895.840,5755907.930,79.180,105,135,72
401895.790,5755907.840,79.120,92,123,61
401895.730,5755907.800,79.180,89,118,58
401895.670,5755907.730,79.170,81,105,51
401895.610,5755907.660,79.150,76,97,48
401895.550,5755907.590,79.140,60,81,37
401896.320,5755908.570,79.200,99,125,49
401896.250,5755908.520,79.250,94,119,48
401896.190,5755908.450,79.230,97,121,53
401896.130,5755908.390,79.240,100,124,49
401896.100,5755908.250,79.040,110,135,62
401896.040,5755908.190,79.050,122,144,82
401895.970,5755908.130,79.060,121,143,81
401895.910,5755908.080,79.100,123,145,82
401895.840,5755908.030,79.130,107,134,67
401895.780,5755907.980,79.160,98,128,64
401895.730,5755907.900,79.130,95,126,61
401895.660,5755907.860,79.170,101,132,72
401896.330,5755908.660,79.110,99,127,61
401896.260,5755908.620,79.170,105,129,59
401896.190,5755908.570,79.210,115,140,71
401896.130,5755908.510,79.220,125,151,78
401896.070,5755908.460,79.240,125,147,71
401896.030,5755908.320,79.060,119,138,66
401895.970,5755908.250,79.050,124,143,79
401895.900,5755908.220,79.140,129,150,87
401895.850,5755908.130,79.060,123,148,82
401895.780,5755908.070,79.090,109,137,69
401895.720,5755908.020,79.110,113,143,81
401896.430,5755908.930,79.140,72,98,47
401896.380,5755908.850,79.100,86,113,53
401896.330,5755908.770,79.060,75,105,45
401896.270,5755908.710,79.090,79,110,49
401896.200,5755908.670,79.150,90,119,55
401896.140,5755908.590,79.120,111,137,73
401896.080,5755908.530,79.110,135,160,95
401896.020,5755908.470,79.120,141,161,95
401895.950,5755908.420,79.160,138,149,84
401895.840,5755908.270,79.110,130,152,87
401895.790,5755908.180,79.050,125,149,80
401895.720,5755908.130,79.070,117,143,76
401896.480,5755909.130,79.190,42,67,33
401896.430,5755909.050,79.130,56,82,39
401896.390,5755908.950,79.030,74,103,44
401896.330,5755908.870,79.000,75,106,43
401896.260,5755908.820,79.030,71,100,42
401896.210,5755908.770,79.080,77,106,47
401896.140,5755908.710,79.110,90,118,58
401896.080,5755908.650,79.090,108,134,73
401896.020,5755908.580,79.090,124,149,88
401895.960,5755908.510,79.080,129,152,92
401895.910,5755908.440,79.050,138,155,92
401895.820,5755908.450,79.230,132,148,82
401896.430,5755909.170,79.130,47,74,36
401896.330,5755908.990,78.980,87,114,52
401896.260,5755908.940,79.020,89,117,50
401896.200,5755908.880,79.050,85,111,47
401896.140,5755908.840,79.090,88,112,51
401896.080,5755908.780,79.110,95,117,58
401896.020,5755908.710,79.100,94,117,59
401895.960,5755908.640,79.090,92,118,59
401895.900,5755908.580,79.080,103,129,68
401895.840,5755908.490,79.050,119,142,78
401896.560,5755909.400,79.070,37,63,34
401896.500,5755909.340,79.080,40,66,36
401896.440,5755909.250,79.040,48,75,38
401896.330,5755909.090,78.960,76,106,54
401896.260,5755909.050,79.000,105,129,67
401896.200,5755909.000,79.040,108,131,64
401896.130,5755908.940,79.070,103,124,58
401896.070,5755908.890,79.100,99,118,56
401896.010,5755908.830,79.120,108,129,72
401895.950,5755908.770,79.120,91,114,58
401895.890,5755908.710,79.140,73,98,40
401896.610,5755909.590,79.090,42,71,40
401896.550,5755909.530,79.100,42,72,39
401896.490,5755909.460,79.100,43,71,37
401896.430,5755909.390,79.070,52,80,40
401896.370,5755909.330,79.080,56,84,42
401896.310,5755909.270,79.090,55,84,40
401896.250,5755909.200,79.090,81,110,56
401896.190,5755909.140,79.090,115,137,74
401896.130,5755909.070,79.070,125,143,75
401896.050,5755909.040,79.150,130,148,80
401896.010,5755908.970,79.130,126,146,78
401895.950,5755908.900,79.130,116,140,75
401896.720,5755909.860,79.150,69,99,51
401896.670,5755909.770,79.080,51,81,40
401896.610,5755909.720,79.100,40,70,34
401896.560,5755909.630,79.030,44,76,40
401896.500,5755909.570,79.050,51,83,44
401896.430,5755909.520,79.080,53,82,41
401896.370,5755909.460,79.090,66,95,48
401896.310,5755909.390,79.090,62,90,44
401896.250,5755909.320,79.060,65,94,47
401896.180,5755909.260,79.090,96,122,66
401896.120,5755909.200,79.080,119,140,78
401896.060,5755909.140,79.100,131,151,85
401896.720,5755909.960,79.080,98,130,74
401896.660,5755909.910,79.110,82,111,58
401896.610,5755909.840,79.090,60,88,43
401896.550,5755909.770,79.090,49,79,39
401896.480,5755909.730,79.150,55,88,47
401896.420,5755909.650,79.100,68,101,56
401896.360,5755909.590,79.100,77,106,56
401896.300,5755909.520,79.110,83,110,57
401896.240,5755909.450,79.080,82,109,56
401896.180,5755909.390,79.080,92,120,65
401896.120,5755909.330,79.090,114,139,80
401896.060,5755909.260,79.090,120,145,80
401896.740,5755910.050,78.980,80,113,56
401896.660,5755910.010,79.040,81,115,54
401896.590,5755909.970,79.090,79,107,49
401896.540,5755909.900,79.100,64,92,43
401896.470,5755909.860,79.150,54,83,41
401896.410,5755909.790,79.150,63,93,48
401896.350,5755909.720,79.130,75,105,51
401896.300,5755909.650,79.120,98,125,66
401896.230,5755909.590,79.120,108,131,70
401896.170,5755909.520,79.110,103,125,66
401896.110,5755909.460,79.100,104,129,71
401896.850,5755910.310,78.990,55,83,35
401896.800,5755910.230,78.940,55,85,33
401896.740,5755910.160,78.920,62,93,37
401896.670,5755910.110,78.960,67,98,41
401896.600,5755910.070,79.020,67,98,40
401896.540,5755910.010,79.060,75,104,44
401896.480,5755909.960,79.090,71,96,44
401896.420,5755909.900,79.110,74,98,50
401896.360,5755909.840,79.110,89,113,61
401896.290,5755909.780,79.110,106,128,70
401896.230,5755909.710,79.120,117,139,77
401896.170,5755909.660,79.130,127,147,81
401896.880,5755910.550,79.140,60,82,38
401896.840,5755910.450,79.030,54,80,34
401896.800,5755910.350,78.920,70,97,44
401896.750,5755910.260,78.850,88,115,52
401896.690,5755910.200,78.850,101,127,59
401896.620,5755910.150,78.910,104,129,62
401896.550,5755910.110,78.970,89,116,52
401896.480,5755910.060,79.010,93,118,57
401896.430,5755910.000,79.030,109,128,74
401896.350,5755909.960,79.090,109,127,76
401896.290,5755909.900,79.100,105,126,72
401896.230,5755909.840,79.120,108,130,74
401896.870,5755910.690,79.190,61,82,41
401896.830,5755910.600,79.090,66,89,42
401896.790,5755910.500,78.980,72,97,45
401896.740,5755910.400,78.870,101,129,67
401896.690,5755910.310,78.800,119,148,77
401896.630,5755910.240,78.810,122,151,74
401896.560,5755910.210,78.880,127,153,80
401896.490,5755910.160,78.940,127,150,80
401896.420,5755910.110,78.990,120,143,77
401896.360,5755910.060,79.030,113,135,78
401896.290,5755910.020,79.090,99,122,69
401896.820,5755910.740,79.140,41,68,25
401896.790,5755910.610,78.950,61,88,33
401896.740,5755910.520,78.870,82,112,46
401896.690,5755910.430,78.790,112,143,73
401896.640,5755910.350,78.740,123,156,82
401896.560,5755910.330,78.860,123,157,79
401896.490,5755910.270,78.900,125,158,84
401896.420,5755910.230,78.970,132,163,88
401896.350,5755910.180,79.010,130,160,87
401897.140,5755911.300,79.300,33,57,28
401896.810,5755910.880,79.190,52,80,35
401896.770,5755910.770,79.050,54,83,32
401896.740,5755910.650,78.870,73,103,35
401896.690,5755910.560,78.810,93,126,47
401896.640,5755910.470,78.730,119,150,73
401896.550,5755910.460,78.890,125,158,81
401896.490,5755910.400,78.910,121,157,76
401896.420,5755910.350,78.950,117,153,74
401897.160,5755911.390,79.200,40,66,32
401897.090,5755911.340,79.250,31,55,26
401896.800,5755911.010,79.200,53,84,40
401896.750,5755910.920,79.130,46,76,28
401896.710,5755910.820,79.020,70,99,39
401896.670,5755910.720,78.900,93,121,50
401896.630,5755910.620,78.800,98,128,50
401896.570,5755910.540,78.760,108,139,61
401896.480,5755910.530,78.900,120,153,71
401896.420,5755910.470,78.940,124,159,70
401897.230,5755911.560,79.140,44,70,34
401897.100,5755911.440,79.170,49,76,35
401897.030,5755911.390,79.220,49,75,36
401896.750,5755911.060,79.160,50,78,33
401896.700,5755910.960,79.050,69,97,38
401896.650,5755910.880,79.020,92,119,48
401896.610,5755910.780,78.890,99,127,54
401896.560,5755910.680,78.810,89,119,44
401896.500,5755910.610,78.780,102,134,56
401897.280,5755911.760,79.180,41,66,31
401897.220,5755911.700,79.170,42,67,32
401897.160,5755911.630,79.160,43,69,33
401897.100,5755911.570,79.170,48,73,35
401897.030,5755911.520,79.210,49,75,34
401896.960,5755911.460,79.240,55,81,37
401896.620,5755911.050,79.170,93,119,55
401896.570,5755910.960,79.070,98,124,54
401896.550,5755910.830,78.880,96,124,53
401896.500,5755910.730,78.800,92,121,49
401897.220,5755911.810,79.140,59,84,44
401897.160,5755911.740,79.120,61,85,44
401897.100,5755911.680,79.110,56,82,41
401897.040,5755911.620,79.140,43,70,32
401896.980,5755911.560,79.140,41,67,29
401896.900,5755911.520,79.220,60,85,39
401897.110,5755911.790,79.080,80,105,56
401897.040,5755911.730,79.100,71,97,50
401896.970,5755911.680,79.140,48,75,33
401896.910,5755911.620,79.150,51,78,35
401896.840,5755911.570,79.200,64,89,42
401896.780,5755911.510,79.190,75,99,49
401896.910,5755911.730,79.150,62,90,42
401896.840,5755911.680,79.160,61,89,41
401896.780,5755911.620,79.200,59,85,39
401897.540,5755912.610,79.280,81,119,41
401896.850,5755911.790,79.140,59,87,36
401898.150,5755914.660,79.570,27,54,20
401898.010,5755914.800,79.650,31,57,24
401897.990,5755914.700,79.460,39,66,27
401897.870,5755914.700,79.460,52,73,32
401898.380,5755915.410,79.570,57,86,42
401898.330,5755915.340,79.510,58,90,37
401898.290,5755915.260,79.430,40,68,28
401898.180,5755915.130,79.400,59,85,47
401897.840,5755914.840,79.580,85,102,60
401897.810,5755914.760,79.470,104,122,74
401897.770,5755914.680,79.400,77,100,45
401898.330,5755915.460,79.500,72,98,53
401898.270,5755915.390,79.490,64,95,41
401898.210,5755915.330,79.520,61,93,43
401898.160,5755915.260,79.470,79,108,60
401898.100,5755915.200,79.450,101,124,78
401898.040,5755915.130,79.460,91,113,66
401897.960,5755915.090,79.560,89,118,64
401897.770,5755914.910,79.590,82,110,58
401897.740,5755914.820,79.490,102,129,75
401897.710,5755914.730,79.380,101,126,68
401897.960,5755915.200,79.520,91,114,67
401897.780,5755915.010,79.550,68,102,44
401897.960,5755915.320,79.520,99,118,68
401898.500,5755915.900,79.220,92,119,56
401898.230,5755915.670,79.380,67,98,43
401898.440,5755915.960,79.200,96,118,62
401898.370,5755915.900,79.220,93,116,59
401898.310,5755915.840,79.260,77,105,46
401898.230,5755915.780,79.320,83,111,54
401898.170,5755915.730,79.370,88,114,58
401898.310,5755915.960,79.220,106,130,69
401898.240,5755915.900,79.270,99,125,64
401898.160,5755915.850,79.330,90,117,57
401898.100,5755915.790,79.380,101,124,67
401898.330,5755916.070,79.120,109,132,69
401898.250,5755916.020,79.210,112,137,74
401898.180,5755915.960,79.260,97,125,60
401898.100,5755915.910,79.330,82,109,48
401898.040,5755915.850,79.380,103,126,70
401898.200,5755916.070,79.140,101,130,59
401898.130,5755916.010,79.200,99,128,60
401898.060,5755915.960,79.250,77,106,42
401898.230,5755916.170,79.010,107,134,53
401898.150,5755916.120,79.070,97,125,44
401898.100,5755916.050,79.050,94,121,54
401898.810,5755916.830,77.740,136,114,81
401898.760,5755916.760,77.680,136,115,82
401898.690,5755916.690,77.670,134,114,82
401898.870,5755917.030,77.720,137,118,82
401898.780,5755916.970,77.810,136,116,81
401898.730,5755916.900,77.800,135,115,81
401898.690,5755916.820,77.690,135,115,82
401898.630,5755916.750,77.680,132,112,80
401898.920,5755917.220,77.700,140,120,82
401898.840,5755917.170,77.830,138,118,82
401898.720,5755917.030,77.800,136,115,80
401898.660,5755916.970,77.790,136,115,80
401898.590,5755916.900,77.800,136,114,81
401898.550,5755916.820,77.720,133,113,81
401898.970,5755917.430,77.780,142,120,81
401898.910,5755917.360,77.760,141,120,82
401898.710,5755917.170,77.830,136,115,80
401898.650,5755917.100,77.830,137,115,80
401898.590,5755917.030,77.800,137,114,80
401898.520,5755916.970,77.820,139,116,82
401898.480,5755916.890,77.710,136,114,81
401898.760,5755917.360,77.820,139,118,80
401898.710,5755917.300,77.820,139,118,80
401898.650,5755917.230,77.810,140,118,81
401898.580,5755917.160,77.820,139,117,80
401898.410,5755916.960,77.760,139,117,82
401898.700,5755917.430,77.820,142,120,80
401898.640,5755917.360,77.820,141,119,81
401898.580,5755917.290,77.820,142,119,81
401898.520,5755917.220,77.810,141,119,81
401901.280,5755925.050,79.480,107,125,64
401901.220,5755924.950,79.300,116,132,71
401901.270,5755925.170,79.520,120,135,75
401901.230,5755925.120,79.460,110,128,67
401901.220,5755925.070,79.310,106,127,60
401901.140,5755925.010,79.340,117,134,67
401901.240,5755925.280,79.590,119,131,76
401901.220,5755925.240,79.480,126,138,79
401901.160,5755925.180,79.460,111,133,68
401901.150,5755925.130,79.330,112,135,68
401901.070,5755925.060,79.380,120,141,74
401901.340,5755925.520,79.620,95,123,68
401901.280,5755925.460,79.630,95,118,65
401901.230,5755925.400,79.600,120,135,83
401901.200,5755925.350,79.530,130,143,85
401901.170,5755925.300,79.420,129,144,78
401901.120,5755925.250,79.400,124,149,81
401901.080,5755925.190,79.330,117,144,79
401901.000,5755925.120,79.410,117,143,76
401901.280,5755925.580,79.640,93,120,64
401901.230,5755925.520,79.610,92,113,59
401901.210,5755925.480,79.480,123,138,82
401901.180,5755925.430,79.400,135,154,91
401901.120,5755925.370,79.400,128,154,81
401901.080,5755925.320,79.340,122,151,80
401900.990,5755925.240,79.420,109,139,73
401900.920,5755925.170,79.440,105,134,67
401901.180,5755925.590,79.560,101,125,62
401901.170,5755925.550,79.420,111,133,65
401901.130,5755925.500,79.350,119,144,75
401901.050,5755925.430,79.410,117,146,77
401900.980,5755925.360,79.450,118,145,78
401900.910,5755925.290,79.480,118,142,81
401901.160,5755925.710,79.600,116,143,73
401901.130,5755925.660,79.520,112,136,71
401901.110,5755925.610,79.400,107,131,64
401901.070,5755925.560,79.340,102,128,60
401900.980,5755925.480,79.440,111,137,73
401901.150,5755925.830,79.630,122,151,82
401901.120,5755925.780,79.550,112,140,73
401901.080,5755925.730,79.460,108,131,70
401901.060,5755925.680,79.350,99,121,56
401901.090,5755925.880,79.630,108,135,67
401901.060,5755925.840,79.520,96,123,57
401901.040,5755925.790,79.410,91,113,54
401901.820,5755926.870,79.350,122,146,75
401901.850,5755927.040,79.410,112,133,64
401901.800,5755926.980,79.400,123,144,74
401901.740,5755926.920,79.390,126,150,77
401901.910,5755927.230,79.410,105,127,58
401901.870,5755927.180,79.360,101,124,53
401901.790,5755927.100,79.400,117,133,63
401901.740,5755927.040,79.390,125,141,69
401901.660,5755926.970,79.430,125,144,71
401901.610,5755926.910,79.440,116,142,68
401901.840,5755927.290,79.420,105,126,55
401901.790,5755927.230,79.420,106,127,56
401901.740,5755927.170,79.370,120,135,63
401901.670,5755927.100,79.390,125,141,67
401901.600,5755927.030,79.440,116,137,61
401901.540,5755926.970,79.450,113,136,61
401902.020,5755927.580,79.260,129,158,74
401901.960,5755927.510,79.260,124,149,66
401901.890,5755927.440,79.290,119,143,64
401901.840,5755927.380,79.260,116,138,62
401901.770,5755927.310,79.280,110,131,61
401901.690,5755927.240,79.340,116,131,61
401901.630,5755927.180,79.330,124,141,68
401901.550,5755927.100,79.400,107,128,54
401901.480,5755927.020,79.450,112,129,59
401901.430,5755926.970,79.420,102,126,59
401902.080,5755927.760,79.260,140,162,87
401901.980,5755927.670,79.370,131,158,81
401901.930,5755927.620,79.320,126,154,72
401901.870,5755927.560,79.320,120,146,65
401901.830,5755927.500,79.290,124,150,71
401901.780,5755927.450,79.240,131,154,76
401901.630,5755927.300,79.320,126,141,68
401901.560,5755927.230,79.360,129,147,73
401901.470,5755927.150,79.440,111,131,56
401901.410,5755927.080,79.460,117,133,63
401902.130,5755927.950,79.240,142,161,95
401901.930,5755927.740,79.320,133,159,80
401901.860,5755927.680,79.340,124,154,71
401901.790,5755927.600,79.380,118,145,61
401901.730,5755927.540,79.360,123,148,65
401901.690,5755927.490,79.320,128,152,71
401901.670,5755927.450,79.210,128,150,71
401901.590,5755927.380,79.250,131,146,68
401901.500,5755927.300,79.340,133,148,74
401901.440,5755927.230,79.350,120,138,65
401902.210,5755928.150,79.190,157,171,108
401902.150,5755928.090,79.170,150,166,104
401902.060,5755928.010,79.250,144,163,99
401902.010,5755927.960,79.220,136,158,87
401901.860,5755927.800,79.340,125,151,73
401901.790,5755927.730,79.390,113,143,61
401901.620,5755927.550,79.340,121,146,63
401901.590,5755927.500,79.250,123,147,68
401901.500,5755927.420,79.330,124,143,62
401902.220,5755928.290,79.140,171,183,115
401902.160,5755928.220,79.150,161,176,112
401902.100,5755928.160,79.130,150,168,103
401902.010,5755928.080,79.220,142,163,95
401901.950,5755928.020,79.220,132,155,84
401901.860,5755927.930,79.330,123,145,71
401901.800,5755927.860,79.350,121,144,69
401901.720,5755927.790,79.390,112,140,59
401901.580,5755927.620,79.280,116,137,58
401902.270,5755928.470,79.160,166,175,112
401902.210,5755928.410,79.150,159,171,104
401902.140,5755928.340,79.180,152,167,101
401902.090,5755928.280,79.170,147,166,101
401902.010,5755928.210,79.200,143,163,95
401901.940,5755928.140,79.240,144,164,93
401901.880,5755928.070,79.260,138,155,82
401901.800,5755927.990,79.330,136,153,77
401901.720,5755927.910,79.380,132,151,77
401902.360,5755928.690,79.070,169,177,117
401902.290,5755928.620,79.090,157,168,108
401902.220,5755928.540,79.120,160,171,108
401902.150,5755928.470,79.160,150,164,98
401902.060,5755928.390,79.220,142,157,95
401902.000,5755928.320,79.230,138,155,92
401901.930,5755928.260,79.250,132,153,85
401901.870,5755928.190,79.260,126,150,77
401901.800,5755928.120,79.300,135,156,75
401901.730,5755928.050,79.340,151,171,90
401901.660,5755927.970,79.380,146,166,86
401902.390,5755928.850,79.170,179,185,125
401902.330,5755928.780,79.150,175,180,120
401902.310,5755928.740,79.050,165,174,116
401902.240,5755928.670,79.070,169,179,117
401902.170,5755928.600,79.090,168,179,113
401902.090,5755928.520,79.150,152,165,99
401902.000,5755928.440,79.210,153,166,102
401901.940,5755928.380,79.230,151,171,104
401901.870,5755928.310,79.240,144,167,97
401901.800,5755928.240,79.260,132,162,87
401901.740,5755928.180,79.290,136,165,81
401902.480,5755929.080,79.200,146,164,102
401902.430,5755929.020,79.190,156,173,108
401902.380,5755928.960,79.170,168,181,118
401902.320,5755928.900,79.160,173,179,121
401902.270,5755928.840,79.150,181,182,123
401902.240,5755928.800,79.060,169,175,115
401902.170,5755928.730,79.080,167,176,116
401902.110,5755928.670,79.090,174,183,117
401902.020,5755928.580,79.160,168,177,111
401901.940,5755928.510,79.200,166,179,113
401901.880,5755928.440,79.220,160,181,114
401901.810,5755928.370,79.250,150,176,102
401902.520,5755929.240,79.090,137,158,91
401902.420,5755929.140,79.200,141,160,92
401902.360,5755929.080,79.190,142,163,98
401902.320,5755929.020,79.170,145,165,100
401902.260,5755928.960,79.160,158,169,111
401902.210,5755928.900,79.140,180,182,125
401902.170,5755928.860,79.060,170,174,115
401902.110,5755928.790,79.070,162,171,108
401902.050,5755928.730,79.080,173,182,116
401901.970,5755928.650,79.120,163,174,110
401901.890,5755928.580,79.170,154,168,105
401901.820,5755928.500,79.210,148,166,100
401902.580,5755929.420,79.090,139,169,97
401902.520,5755929.360,79.070,135,160,90
401902.460,5755929.300,79.080,129,153,81
401902.360,5755929.200,79.200,137,158,85
401902.300,5755929.140,79.190,135,159,89
401902.250,5755929.080,79.170,143,169,100
401902.200,5755929.020,79.160,147,165,104
401902.140,5755928.970,79.140,169,174,114
401902.100,5755928.920,79.080,171,174,112
401902.030,5755928.840,79.120,168,173,110
401901.980,5755928.790,79.090,164,171,107
401901.900,5755928.710,79.140,153,165,100
401902.650,5755929.650,79.190,156,182,108
401902.590,5755929.580,79.220,148,176,102
401902.540,5755929.530,79.170,141,174,100
401902.500,5755929.470,79.130,126,161,89
401902.450,5755929.420,79.080,125,155,80
401902.390,5755929.360,79.080,128,156,81
401902.290,5755929.270,79.200,135,161,89
401902.240,5755929.210,79.180,132,157,91
401902.190,5755929.140,79.170,132,158,94
401902.130,5755929.090,79.160,141,159,98
401902.080,5755929.030,79.140,162,167,106
401902.020,5755928.970,79.120,173,174,112
401901.960,5755928.900,79.120,170,173,112
401902.650,5755929.760,79.210,132,164,90
401902.580,5755929.700,79.210,137,166,93
401902.520,5755929.630,79.220,136,164,89
401902.460,5755929.570,79.220,131,161,85
401902.440,5755929.540,79.110,124,155,84
401902.390,5755929.490,79.070,127,156,83
401902.330,5755929.420,79.070,125,155,80
401902.230,5755929.320,79.210,125,154,80
401902.170,5755929.270,79.190,120,146,81
401902.120,5755929.200,79.190,132,152,91
401902.070,5755929.140,79.170,149,161,104
401902.010,5755929.090,79.150,168,170,115
401902.740,5755929.990,79.110,136,156,94
401902.680,5755929.920,79.110,125,152,89
401902.580,5755929.830,79.210,108,141,76
401902.520,5755929.760,79.210,116,147,79
401902.460,5755929.700,79.210,124,155,86
401902.400,5755929.640,79.210,121,150,79
401902.360,5755929.590,79.150,124,151,79
401902.320,5755929.540,79.100,126,151,84
401902.270,5755929.490,79.060,120,144,79
401902.110,5755929.320,79.190,123,148,83
401902.050,5755929.260,79.190,141,160,95
401902.830,5755930.220,79.170,122,146,80
401902.780,5755930.160,79.150,122,136,72
401902.720,5755930.100,79.130,138,151,93
401902.680,5755930.050,79.100,139,157,100
401902.620,5755929.980,79.100,116,143,83
401902.560,5755929.920,79.090,110,139,75
401902.500,5755929.860,79.100,122,151,87
401902.440,5755929.790,79.100,119,151,88
401902.360,5755929.720,79.140,116,147,76
401902.280,5755929.630,79.210,128,156,81
401902.220,5755929.580,79.180,122,148,80
401902.180,5755929.520,79.140,111,137,73
401902.870,5755930.390,79.220,141,166,94
401902.820,5755930.340,79.180,136,164,95
401902.760,5755930.280,79.180,113,137,75
401902.710,5755930.220,79.150,116,130,72
401902.650,5755930.160,79.140,131,143,86
401902.620,5755930.110,79.100,131,148,89
401902.560,5755930.050,79.100,125,151,87
401902.500,5755929.990,79.080,127,154,86
401902.440,5755929.920,79.080,130,158,92
401902.380,5755929.860,79.090,125,159,94
401902.300,5755929.780,79.140,123,154,85
401902.230,5755929.710,79.170,129,156,86
401902.890,5755930.540,79.140,154,173,98
401902.810,5755930.460,79.190,155,178,103
401902.760,5755930.400,79.180,146,172,104
401902.700,5755930.340,79.180,114,139,79
401902.650,5755930.280,79.160,98,117,62
401902.590,5755930.210,79.170,112,126,67
401902.550,5755930.170,79.110,124,140,78
401902.490,5755930.110,79.100,128,149,84
401902.440,5755930.050,79.090,126,151,85
401902.380,5755929.980,79.080,127,152,87
401902.310,5755929.920,79.090,127,156,90
401902.240,5755929.850,79.120,126,155,88
401902.970,5755930.750,79.080,183,184,123
401902.910,5755930.680,79.090,175,184,118
401902.830,5755930.600,79.130,159,175,101
401902.740,5755930.510,79.220,158,179,103
401902.680,5755930.450,79.220,146,170,105
401902.630,5755930.390,79.190,105,128,75
401902.580,5755930.340,79.160,85,104,51
401902.520,5755930.280,79.150,116,131,72
401902.480,5755930.220,79.120,123,144,81
401902.420,5755930.160,79.110,120,145,78
401902.370,5755930.110,79.090,123,148,82
401902.310,5755930.040,79.090,135,159,93
401903.030,5755930.930,79.090,160,172,100
401902.980,5755930.880,79.050,166,175,106
401902.910,5755930.800,79.090,178,183,119
401902.860,5755930.750,79.060,174,183,118
401902.780,5755930.680,79.090,158,172,101
401902.700,5755930.590,79.150,163,179,106
401902.630,5755930.520,79.190,149,166,107
401902.570,5755930.460,79.190,96,117,66
401902.510,5755930.390,79.180,91,106,51
401902.460,5755930.340,79.160,125,141,78
401902.420,5755930.290,79.110,126,151,86
401902.370,5755930.230,79.100,124,152,85
401903.110,5755931.170,79.330,93,126,44
401903.070,5755931.120,79.290,92,125,43
401903.040,5755931.080,79.220,117,144,64
401903.000,5755931.040,79.150,137,158,82
401902.960,5755930.990,79.110,155,169,94
401902.910,5755930.940,79.070,168,176,107
401902.860,5755930.880,79.040,182,187,119
401902.790,5755930.810,79.060,182,190,123
401902.720,5755930.730,79.100,172,183,114
401902.640,5755930.660,79.140,170,182,114
401902.580,5755930.590,79.150,142,157,98
401902.510,5755930.520,79.160,94,115,61
401902.440,5755930.450,79.190,100,113,54
401902.390,5755930.400,79.160,139,154,86
401903.140,5755931.330,79.380,86,122,37
401903.110,5755931.280,79.350,78,114,30
401902.960,5755931.130,79.240,97,124,49
401902.930,5755931.090,79.170,109,136,61
401902.890,5755931.040,79.120,132,152,76
401902.850,5755931.000,79.070,160,170,100
401902.800,5755930.930,79.040,174,183,111
401902.720,5755930.870,79.070,179,189,117
401902.660,5755930.800,79.090,184,192,125
401902.580,5755930.730,79.120,173,183,117
401902.520,5755930.660,79.130,140,157,94
401902.450,5755930.590,79.150,99,118,58
401903.200,5755931.520,79.360,82,116,33
401903.150,5755931.470,79.350,92,125,35
401903.090,5755931.400,79.350,88,122,33
401903.040,5755931.350,79.340,71,108,26
401902.990,5755931.290,79.330,61,97,30
401902.900,5755931.190,79.250,86,114,41
401902.860,5755931.140,79.190,101,130,53
401902.820,5755931.090,79.120,116,140,69
401902.790,5755931.050,79.060,135,149,84
401902.740,5755931.000,79.030,150,162,92
401902.660,5755930.920,79.080,165,177,103
401902.590,5755930.840,79.100,181,189,123
401902.530,5755930.780,79.090,176,186,122
401903.260,5755931.710,79.370,80,115,31
401903.200,5755931.650,79.370,65,104,26
401903.140,5755931.590,79.360,60,97,22
401903.090,5755931.530,79.350,80,113,29
401903.030,5755931.470,79.350,85,118,33
401902.970,5755931.410,79.330,76,112,30
401902.920,5755931.350,79.330,71,106,30
401902.810,5755931.230,79.300,88,118,41
401902.790,5755931.190,79.200,93,123,49
401902.760,5755931.160,79.120,109,132,66
401902.730,5755931.120,79.050,128,141,81
401902.680,5755931.060,79.020,139,150,85
401902.590,5755930.970,79.090,153,165,94
401903.260,5755931.830,79.370,96,127,41
401903.200,5755931.780,79.350,95,128,48
401903.140,5755931.720,79.340,75,110,34
401903.080,5755931.650,79.360,69,101,27
401903.020,5755931.580,79.350,94,125,43
401902.960,5755931.520,79.350,98,133,46
401902.920,5755931.470,79.310,93,130,41
401902.860,5755931.390,79.340,96,132,39
401902.710,5755931.230,79.260,89,118,45
401902.650,5755931.170,79.250,105,127,64
401902.620,5755931.140,79.150,122,134,74
401903.200,5755931.890,79.350,110,140,53
401903.120,5755931.810,79.390,104,134,47
401903.070,5755931.750,79.370,104,133,45
401903.020,5755931.700,79.350,107,136,52
401902.960,5755931.640,79.340,115,146,60
401902.900,5755931.580,79.340,109,145,53
401902.850,5755931.520,79.330,102,141,43
401902.790,5755931.450,79.350,99,140,38
401902.690,5755931.340,79.310,85,122,31
401903.050,5755931.870,79.410,114,141,52
401903.000,5755931.810,79.390,119,147,54
401902.950,5755931.750,79.380,123,153,66
401902.890,5755931.700,79.350,123,155,66
401902.840,5755931.640,79.340,118,153,61
401902.780,5755931.580,79.340,112,151,55
401902.730,5755931.520,79.340,99,141,44
401903.000,5755931.940,79.380,128,153,67
401902.930,5755931.860,79.410,126,154,65
401902.880,5755931.810,79.390,116,151,62
401902.820,5755931.750,79.370,109,145,56
401902.930,5755931.990,79.410,118,147,58
401902.870,5755931.920,79.410,124,152,61
401894.770,5755903.380,79.440,138,163,94
401894.830,5755903.580,79.420,120,141,67
401894.770,5755903.510,79.430,146,168,90
401894.690,5755903.400,79.490,156,179,106
401894.900,5755903.830,79.330,112,134,62
401894.820,5755903.710,79.410,129,152,75
401894.760,5755903.630,79.440,143,169,85
401894.700,5755903.550,79.450,155,180,94
401894.620,5755903.440,79.520,162,186,111
401894.940,5755903.970,79.390,111,133,58
401894.880,5755903.920,79.370,105,128,58
401894.820,5755903.850,79.380,126,151,78
401894.760,5755903.760,79.410,140,171,87
401894.690,5755903.680,79.440,146,177,88
401894.620,5755903.570,79.510,158,185,103
401894.800,5755903.920,79.460,134,156,82
401894.740,5755903.830,79.490,150,174,104
401894.670,5755903.740,79.520,143,172,99
401894.990,5755904.280,79.400,116,143,67
401894.940,5755904.260,79.330,112,138,61
401894.860,5755904.120,79.430,117,142,60
401894.790,5755904.030,79.470,130,156,69
401894.730,5755903.950,79.490,143,170,88
401895.040,5755904.470,79.380,114,141,68
401894.990,5755904.440,79.330,110,134,62
401894.940,5755904.380,79.330,120,139,68
401894.870,5755904.280,79.380,126,146,68
401894.530,5755903.820,79.570,145,170,101
401894.970,5755904.540,79.360,123,145,77
401894.930,5755904.510,79.320,125,143,72
401894.870,5755904.420,79.360,131,151,76
401894.800,5755904.330,79.380,127,152,67
401894.910,5755904.610,79.350,138,159,86
401894.860,5755904.580,79.300,140,160,84
401894.800,5755904.460,79.380,135,162,80
401894.730,5755904.370,79.410,135,166,82
401894.660,5755904.280,79.450,139,174,98
401895.260,5755905.120,79.340,138,164,87
401894.660,5755904.400,79.450,138,171,92
401894.600,5755904.320,79.470,146,181,116
401895.410,5755905.530,79.150,158,181,99
401895.350,5755905.430,79.190,156,179,97
401895.270,5755905.310,79.270,151,177,99
401895.330,5755905.530,79.220,140,165,85
401895.280,5755905.460,79.240,142,168,86
401895.200,5755905.340,79.300,141,169,88
401895.200,5755905.470,79.300,128,157,79
401895.060,5755905.560,79.330,113,146,75
401900.910,5755923.860,79.140,68,100,45
401900.870,5755923.810,79.160,76,110,57
401900.820,5755923.760,79.200,62,94,45
401900.780,5755923.710,79.230,43,76,34
401900.950,5755924.020,79.210,92,120,59
401900.870,5755923.940,79.170,94,122,64
401900.820,5755923.880,79.190,93,124,66
401900.770,5755923.830,79.210,78,109,53
401900.730,5755923.780,79.250,68,99,49
401901.020,5755924.200,79.340,118,143,79
401900.920,5755924.110,79.270,110,139,76
401900.830,5755924.020,79.210,120,149,86
401900.770,5755923.960,79.210,116,143,79
401900.720,5755923.900,79.230,104,135,74
401900.670,5755923.850,79.260,98,130,73
401901.040,5755924.340,79.360,119,149,84
401900.980,5755924.280,79.360,118,145,80
401900.880,5755924.190,79.320,124,150,88
401900.800,5755924.100,79.270,125,149,87
401900.740,5755924.040,79.270,108,133,69
401900.680,5755923.980,79.280,108,141,77
401900.630,5755923.920,79.290,105,141,76
401901.060,5755924.490,79.420,116,147,77
401901.000,5755924.420,79.400,114,146,79
401900.930,5755924.350,79.400,122,151,85
401900.580,5755924.000,79.320,110,144,79
401901.150,5755924.700,79.480,121,147,90
401901.020,5755924.560,79.450,108,138,71
401900.950,5755924.490,79.430,111,142,77
401900.590,5755924.130,79.350,84,114,54
401900.500,5755924.040,79.290,101,132,68
401901.080,5755924.760,79.480,108,132,72
401901.270,5755925.080,79.500,111,139,76
401901.220,5755925.030,79.520,119,147,88
401901.060,5755924.870,79.440,137,159,106
401901.010,5755924.820,79.460,115,142,86
401901.320,5755925.270,79.490,123,153,88
401901.260,5755925.200,79.480,116,146,79
401901.210,5755925.150,79.500,117,147,81
401901.390,5755925.440,79.610,128,162,94
401901.290,5755925.350,79.540,131,163,94
401901.210,5755925.270,79.510,121,154,82
401901.420,5755925.590,79.660,127,160,88
401901.340,5755925.510,79.630,124,160,89
401901.250,5755925.430,79.580,130,164,99
401901.610,5755926.190,79.610,124,149,88
401901.570,5755926.140,79.640,133,160,98
401901.530,5755926.090,79.690,125,153,87
401901.620,5755926.350,79.540,121,151,87
401901.580,5755926.290,79.560,128,155,95
401901.540,5755926.240,79.600,134,159,98
401901.510,5755926.200,79.650,127,156,87
401901.750,5755926.630,79.440,111,135,69
401901.700,5755926.570,79.470,105,134,70
401901.670,5755926.520,79.520,113,147,83
401901.640,5755926.480,79.570,121,152,85
401901.580,5755926.420,79.560,117,145,76
401901.550,5755926.370,79.620,116,144,81
401901.510,5755926.320,79.650,124,152,93
401901.800,5755926.800,79.420,128,153,87
401901.740,5755926.740,79.420,125,150,81
401901.670,5755926.670,79.410,109,137,68
401901.600,5755926.590,79.390,105,135,70
401901.550,5755926.540,79.420,107,136,75
401901.520,5755926.500,79.470,117,145,82
401901.450,5755926.430,79.450,125,151,85
401901.410,5755926.380,79.490,119,145,81
401901.850,5755926.990,79.420,133,159,82
401901.790,5755926.920,79.430,130,157,86
401901.740,5755926.860,79.420,128,156,89
401901.690,5755926.800,79.440,125,153,84
401901.620,5755926.730,79.420,115,144,76
401901.550,5755926.660,79.420,108,138,73
401901.510,5755926.620,79.460,104,132,73
401901.480,5755926.570,79.500,116,141,83
401901.410,5755926.500,79.500,129,151,92
401901.390,5755926.460,79.570,125,147,85
401901.900,5755927.170,79.410,122,144,73
401901.830,5755927.100,79.400,129,152,75
401901.780,5755927.050,79.420,124,151,71
401901.730,5755926.990,79.430,119,148,75
401901.680,5755926.920,79.430,123,152,83
401901.620,5755926.860,79.440,128,155,88
401901.560,5755926.800,79.430,118,143,81
401901.490,5755926.730,79.430,110,138,79
401901.400,5755926.650,79.380,112,143,84
401901.390,5755926.610,79.470,114,142,83
401901.340,5755926.560,79.480,122,146,85
401901.320,5755926.520,79.550,119,143,82
401901.950,5755927.350,79.400,122,143,83
401901.890,5755927.290,79.410,126,143,81
401901.830,5755927.230,79.410,125,145,78
401901.760,5755927.160,79.390,121,144,70
401901.720,5755927.110,79.420,119,143,71
401901.670,5755927.050,79.440,118,146,75
401901.610,5755926.980,79.430,124,152,85
401901.560,5755926.930,79.450,132,154,91
401901.530,5755926.880,79.500,119,142,78
401901.420,5755926.780,79.410,104,132,72
401901.350,5755926.710,79.390,103,134,76
401901.310,5755926.670,79.440,120,151,91
401901.280,5755926.620,79.480,125,153,88
401901.950,5755927.480,79.410,125,149,74
401901.890,5755927.420,79.410,128,147,84
401901.820,5755927.350,79.400,126,142,80
401901.760,5755927.280,79.390,121,143,76
401901.690,5755927.220,79.380,119,144,72
401901.640,5755927.160,79.390,113,138,68
401901.590,5755927.100,79.410,110,136,68
401901.520,5755927.020,79.370,109,135,71
401901.480,5755926.970,79.400,121,144,82
401901.450,5755926.930,79.460,129,154,87
401901.390,5755926.870,79.470,126,152,88
401902.110,5755927.850,79.170,129,149,81
401902.100,5755927.810,79.240,123,147,75
401902.050,5755927.750,79.260,121,148,78
401902.030,5755927.710,79.350,122,150,85
401901.880,5755927.540,79.400,136,161,85
401901.820,5755927.470,79.400,132,158,84
401901.760,5755927.410,79.400,130,151,83
401901.700,5755927.350,79.400,135,157,90
401901.640,5755927.280,79.400,135,159,87
401901.590,5755927.230,79.420,116,142,68
401901.530,5755927.170,79.430,100,127,56
401901.470,5755927.100,79.430,106,130,69
401901.430,5755927.040,79.440,116,141,80
401901.360,5755926.970,79.430,121,150,83
401902.170,5755928.040,79.170,132,150,80
401902.110,5755927.970,79.170,127,149,79
401902.040,5755927.910,79.160,126,148,78
401902.030,5755927.860,79.230,123,146,75
401901.990,5755927.810,79.270,119,143,71
401901.980,5755927.780,79.360,111,138,69
401901.700,5755927.480,79.410,139,165,88
401901.620,5755927.400,79.380,141,165,92
401901.560,5755927.340,79.380,136,161,87
401901.510,5755927.280,79.390,120,145,69
401901.460,5755927.220,79.400,103,131,63
401902.170,5755928.160,79.170,157,170,99
401902.110,5755928.100,79.160,137,156,83
401902.050,5755928.040,79.190,122,147,74
401902.010,5755927.980,79.220,124,149,76
401901.970,5755927.930,79.250,122,145,72
401901.940,5755927.880,79.290,114,137,66
401901.910,5755927.830,79.350,112,137,69
401901.640,5755927.530,79.400,131,157,76
401901.560,5755927.460,79.380,130,160,82
401901.510,5755927.400,79.390,137,166,88
401902.270,5755928.410,79.140,185,194,133
401902.210,5755928.340,79.140,178,189,125
401902.170,5755928.290,79.170,165,180,113
401902.100,5755928.220,79.160,153,171,102
401902.050,5755928.160,79.170,143,165,90
401901.990,5755928.100,79.190,131,155,79
401901.960,5755928.050,79.240,121,146,71
401901.910,5755927.990,79.250,106,132,61
401901.880,5755927.950,79.310,105,131,65
401901.580,5755927.600,79.420,112,144,62
401902.340,5755928.600,79.150,183,192,129
401902.290,5755928.540,79.170,176,186,126
401902.200,5755928.470,79.130,170,180,120
401902.160,5755928.410,79.160,159,175,114
401902.100,5755928.350,79.170,150,170,109
401902.040,5755928.280,79.160,147,167,103
401901.980,5755928.220,79.160,139,162,93
401901.920,5755928.150,79.160,131,155,80
401901.870,5755928.100,79.210,124,148,72
401901.830,5755928.040,79.220,113,142,71
401901.810,5755928.000,79.290,115,143,78
401902.400,5755928.790,79.160,198,202,142
401902.320,5755928.710,79.130,189,200,138
401902.250,5755928.640,79.110,178,192,128
401902.210,5755928.600,79.160,167,180,119
401902.160,5755928.540,79.180,164,177,117
401902.100,5755928.480,79.180,156,171,112
401902.050,5755928.410,79.190,150,170,108
401901.980,5755928.350,79.170,137,160,95
401901.910,5755928.270,79.160,125,152,85
401901.850,5755928.210,79.170,119,149,77
401901.800,5755928.140,79.180,123,153,75
401901.750,5755928.080,79.190,122,154,77
401901.720,5755928.050,79.250,120,153,84
401901.710,5755928.010,79.340,124,153,84
401902.460,5755928.980,79.180,173,191,127
401902.390,5755928.900,79.150,189,198,137
401902.340,5755928.850,79.170,190,194,130
401902.270,5755928.780,79.160,182,193,128
401902.210,5755928.710,79.160,176,191,127
401902.160,5755928.650,79.170,177,190,128
401902.100,5755928.590,79.180,178,187,125
401902.050,5755928.530,79.190,172,185,123
401901.990,5755928.470,79.200,161,179,114
401901.920,5755928.400,79.190,141,165,97
401901.870,5755928.340,79.200,128,158,86
401901.810,5755928.280,79.200,126,160,83
401901.750,5755928.210,79.200,132,167,86
401902.440,5755929.090,79.160,158,180,111
401902.370,5755929.030,79.150,160,179,113
401902.310,5755928.960,79.130,176,189,128
401902.230,5755928.880,79.090,187,193,130
401902.160,5755928.810,79.070,186,192,127
401902.090,5755928.740,79.050,176,190,126
401902.050,5755928.690,79.080,181,192,130
401902.010,5755928.640,79.130,178,188,126
401901.970,5755928.590,79.180,172,184,122
401901.930,5755928.530,79.210,164,178,114
401901.880,5755928.470,79.230,150,170,100
401902.530,5755929.300,79.220,143,169,105
401902.460,5755929.230,79.190,156,179,113
401902.350,5755929.140,79.110,149,173,106
401902.290,5755929.080,79.120,149,174,108
401902.260,5755929.020,79.150,164,186,122
401902.180,5755928.950,79.110,178,190,129
401902.090,5755928.870,79.060,191,195,134
401902.020,5755928.800,79.040,189,199,137
401901.980,5755928.750,79.070,183,192,131
401901.930,5755928.690,79.110,170,181,121
401901.900,5755928.640,79.160,158,172,110
401901.860,5755928.590,79.200,150,166,101
401902.580,5755929.490,79.200,132,164,93
401902.520,5755929.420,79.190,133,167,97
401902.450,5755929.350,79.190,139,172,104
401902.360,5755929.270,79.140,148,175,104
401902.280,5755929.200,79.090,145,172,104
401902.250,5755929.150,79.150,149,177,111
401902.200,5755929.090,79.150,157,182,119
401902.100,5755929.010,79.090,173,188,129
401902.010,5755928.930,79.030,193,196,137
401901.970,5755928.870,79.060,196,200,140
401901.910,5755928.810,79.070,186,193,133
401902.470,5755929.490,79.220,125,159,91
401902.410,5755929.420,79.220,124,159,91
401902.320,5755929.350,79.170,135,167,94
401902.240,5755929.270,79.150,142,174,103
401902.170,5755929.200,79.130,146,175,110
