//X,Y,Z,R,G,B
401926.340,5755838.220,79.090,101,125,38
401926.300,5755838.170,79.050,87,112,25
401926.420,5755838.460,79.140,111,137,59
401926.390,5755838.420,79.090,107,135,58
401926.340,5755838.360,79.070,103,133,54
401926.280,5755838.290,79.070,101,126,47
401926.240,5755838.240,79.030,84,109,35
401926.190,5755838.200,78.990,78,104,29
401926.400,5755838.580,79.160,118,147,71
401926.350,5755838.500,79.160,107,138,64
401926.330,5755838.520,79.030,89,122,43
401926.260,5755838.410,79.090,91,125,40
401926.210,5755838.350,79.070,106,133,51
401926.130,5755838.250,79.120,94,122,49
401926.120,5755838.250,79.010,80,107,35
401926.310,5755838.610,79.200,110,141,68
401926.260,5755838.540,79.200,100,130,64
401926.230,5755838.510,79.130,93,120,48
401926.180,5755838.450,79.110,97,126,45
401926.130,5755838.400,79.080,106,133,53
401926.090,5755838.350,79.050,103,132,53
401926.060,5755838.330,78.970,97,124,46
401926.000,5755838.260,78.970,98,124,45
401926.090,5755838.480,79.170,89,118,42
401926.050,5755838.430,79.120,104,131,56
401926.000,5755838.380,79.090,112,136,60
401925.970,5755838.350,79.030,112,136,58
401925.920,5755838.300,78.990,106,131,47
401926.010,5755838.520,79.190,91,118,45
401925.960,5755838.460,79.180,105,130,56
401925.930,5755838.430,79.110,112,133,59
401925.880,5755838.380,79.070,117,134,62
401925.840,5755838.460,79.150,103,127,52
401925.770,5755838.380,79.160,109,132,60
401925.710,5755838.440,79.160,99,126,56
401925.590,5755838.460,79.120,87,118,46
401925.680,5755838.930,79.420,59,95,41
401925.640,5755838.900,79.360,62,93,40
401925.210,5755838.680,79.210,98,133,81
401924.990,5755838.850,79.230,113,139,82
401924.920,5755838.900,79.230,103,130,69
401924.070,5755839.210,79.010,79,116,58
401924.010,5755839.280,78.990,73,110,50
401924.010,5755839.430,78.950,79,116,54
401923.930,5755839.320,79.010,77,118,53
401923.940,5755839.490,78.950,91,127,59
401923.870,5755839.410,78.970,88,130,63
401923.750,5755839.360,79.130,80,121,48
401923.670,5755839.400,79.160,85,123,56
401921.940,5755840.760,77.850,116,102,52
401921.880,5755840.710,77.820,115,100,50
401921.640,5755840.410,77.830,112,103,46
401921.850,5755840.790,77.900,122,107,53
401921.800,5755840.740,77.860,122,106,52
401921.740,5755840.670,77.860,115,104,48
401921.670,5755840.580,77.880,109,102,44
401921.610,5755840.490,77.910,109,104,43
401921.770,5755840.830,77.930,127,111,56
401921.720,5755840.770,77.910,125,109,53
401921.650,5755840.700,77.910,115,106,47
401921.590,5755840.610,77.930,105,103,41
401921.640,5755840.820,77.910,128,112,56
401921.590,5755840.760,77.890,116,107,50
401921.520,5755840.680,77.900,105,105,42
401921.460,5755840.610,77.920,106,111,40
401921.400,5755840.540,77.900,107,114,41
401921.570,5755840.900,77.890,131,113,56
401921.520,5755840.830,77.880,118,111,51
401921.450,5755840.750,77.890,105,109,41
401921.390,5755840.660,77.910,104,110,41
401921.330,5755840.590,77.900,105,109,44
401921.490,5755840.940,77.920,130,111,55
401921.430,5755840.860,77.920,123,111,52
401921.380,5755840.800,77.910,111,107,45
401921.310,5755840.710,77.920,105,104,45
401921.250,5755840.650,77.910,103,101,49
401921.420,5755840.980,77.940,134,114,59
401921.360,5755840.930,77.910,131,113,57
401921.300,5755840.840,77.940,127,111,54
401921.230,5755840.760,77.950,122,109,54
401921.170,5755840.690,77.940,119,107,54
401921.340,5755841.020,77.970,133,114,57
401921.280,5755840.950,77.970,133,113,57
401921.220,5755840.880,77.970,131,113,57
401921.160,5755840.810,77.970,128,112,57
401921.100,5755840.750,77.950,124,109,56
401921.260,5755841.070,77.990,132,115,56
401921.200,5755840.990,78.000,131,116,59
401921.140,5755840.920,78.000,130,119,62
401921.080,5755840.850,77.990,128,119,62
401921.030,5755840.790,77.970,126,117,60
401921.050,5755840.940,78.060,133,146,81
401921.000,5755840.880,78.040,125,138,75
401920.950,5755840.820,78.020,125,132,69
401920.970,5755840.980,78.090,136,165,97
401920.930,5755840.930,78.060,122,147,83
401920.870,5755840.870,78.040,117,135,71
401921.030,5755841.210,78.060,153,186,109
401920.960,5755841.110,78.090,151,183,108
401920.900,5755841.040,78.090,145,177,105
401920.850,5755840.980,78.070,135,165,100
401920.800,5755840.930,78.040,123,148,87
401920.890,5755841.190,78.060,154,189,109
401920.830,5755841.100,78.080,154,187,111
401920.780,5755841.030,78.080,145,176,108
401920.730,5755840.980,78.040,130,156,94
401920.660,5755840.910,78.050,119,139,77
401920.820,5755841.260,78.060,154,189,108
401920.760,5755841.180,78.070,154,187,109
401920.710,5755841.110,78.050,144,176,105
401920.650,5755841.040,78.040,131,157,91
401920.590,5755840.960,78.060,125,147,82
401920.750,5755841.320,78.060,154,186,105
401920.690,5755841.240,78.060,152,184,106
401920.640,5755841.170,78.060,145,178,104
401920.580,5755841.110,78.040,137,168,100
401920.520,5755841.020,78.070,119,144,76
401920.670,5755841.350,78.090,149,180,102
401920.610,5755841.280,78.080,148,180,103
401920.560,5755841.220,78.070,146,178,104
401920.510,5755841.150,78.060,134,163,98
401920.440,5755841.070,78.070,110,126,66
401920.600,5755841.410,78.090,151,184,107
401920.540,5755841.350,78.080,149,183,105
401920.490,5755841.280,78.070,141,173,99
401920.430,5755841.210,78.060,119,141,81
401920.370,5755841.120,78.090,106,110,58
401920.530,5755841.460,78.090,152,184,107
401920.470,5755841.400,78.080,144,173,98
401920.420,5755841.340,78.060,135,159,87
401920.360,5755841.250,78.080,118,130,75
401920.290,5755841.170,78.090,113,108,63
401920.450,5755841.510,78.110,143,164,96
401920.390,5755841.450,78.090,125,140,79
401920.340,5755841.380,78.080,117,120,65
401920.280,5755841.310,78.080,118,113,66
401920.220,5755841.230,78.090,118,107,65
401920.150,5755841.140,78.120,118,108,66
401920.320,5755841.520,78.070,119,114,66
401920.270,5755841.450,78.070,117,106,61
401920.210,5755841.350,78.110,121,108,65
401920.150,5755841.280,78.100,121,108,67
401920.080,5755841.200,78.120,117,106,65
401920.250,5755841.570,78.090,128,118,80
401920.190,5755841.470,78.130,128,115,77
401920.130,5755841.400,78.130,129,117,80
401920.070,5755841.320,78.130,129,118,78
401920.010,5755841.240,78.140,127,119,80
401920.170,5755841.600,78.130,145,133,101
401920.110,5755841.520,78.150,151,139,106
401920.050,5755841.440,78.150,157,150,112
401919.990,5755841.370,78.160,155,153,111
401919.930,5755841.280,78.170,147,147,106
401920.100,5755841.650,78.160,146,134,100
401920.040,5755841.560,78.170,154,143,103
401919.980,5755841.490,78.180,157,155,104
401919.920,5755841.410,78.180,149,155,100
401919.850,5755841.330,78.190,144,149,97
401920.030,5755841.710,78.150,145,140,97
401919.970,5755841.640,78.140,147,143,95
401919.910,5755841.580,78.130,142,147,91
401919.850,5755841.500,78.140,131,142,79
401919.780,5755841.390,78.190,131,138,79
401919.950,5755841.750,78.180,144,149,91
401919.890,5755841.670,78.180,147,150,90
401919.840,5755841.620,78.150,153,159,95
401919.770,5755841.520,78.190,135,146,83
401919.700,5755841.420,78.240,130,136,78
401919.870,5755841.790,78.210,140,155,82
401919.810,5755841.720,78.210,150,158,83
401919.760,5755841.660,78.190,151,160,85
401919.690,5755841.570,78.200,138,144,78
401919.630,5755841.480,78.240,139,143,92
401919.780,5755841.780,78.310,129,152,70
401919.730,5755841.720,78.290,137,155,75
401919.670,5755841.650,78.280,135,149,77
401919.610,5755841.570,78.290,130,136,77
401919.540,5755841.480,78.320,148,159,112
401919.750,5755841.840,78.420,128,154,80
401919.690,5755841.770,78.410,125,155,73
401919.640,5755841.720,78.380,134,161,77
401919.580,5755841.660,78.350,131,153,76
401919.530,5755841.600,78.340,134,144,77
401919.470,5755841.530,78.340,145,158,107
401919.710,5755841.840,78.590,128,158,84
401919.660,5755841.810,78.540,136,165,90
401919.610,5755841.760,78.510,132,163,79
401919.560,5755841.720,78.450,132,163,79
401919.500,5755841.690,78.400,117,143,64
401919.450,5755841.640,78.360,118,134,63
401919.390,5755841.570,78.370,124,138,73
401919.520,5755841.750,78.600,124,156,80
401919.480,5755841.780,78.450,118,150,78
401919.430,5755841.730,78.430,110,138,68
401919.370,5755841.680,78.400,107,129,60
401919.320,5755841.610,78.390,115,133,61
401919.490,5755841.800,78.710,115,152,79
401919.440,5755841.770,78.660,101,135,64
401919.390,5755841.760,78.570,106,138,66
401919.350,5755841.760,78.470,102,134,64
401919.300,5755841.720,78.420,95,123,51
401919.240,5755841.660,78.410,109,129,50
401919.520,5755841.940,78.800,107,145,73
401919.470,5755841.890,78.760,112,146,69
401919.360,5755841.790,78.710,96,132,60
401919.310,5755841.770,78.640,103,136,65
401919.260,5755841.730,78.600,87,119,50
401919.220,5755841.740,78.480,77,106,39
401919.160,5755841.660,78.480,95,114,43
401919.450,5755841.990,78.810,94,131,56
401919.170,5755841.730,78.680,81,114,48
401919.130,5755841.710,78.610,79,112,43
401919.080,5755841.680,78.550,97,128,51
401919.050,5755841.730,78.660,92,127,51
401919.000,5755841.710,78.580,101,136,55
401918.980,5755841.800,78.650,90,128,54
401918.920,5755841.740,78.610,87,123,41
401918.890,5755841.790,78.740,85,124,48
401918.850,5755841.780,78.640,78,117,38
401919.090,5755842.100,78.880,98,137,70
401918.890,5755841.950,78.690,88,126,51
401918.830,5755841.900,78.650,75,114,41
401918.780,5755841.860,78.620,70,106,34
401919.020,5755842.150,78.890,88,127,59
401918.960,5755842.080,78.880,68,108,39
401918.920,5755842.090,78.770,67,107,35
401918.870,5755842.040,78.750,85,123,50
401918.810,5755841.990,78.710,90,127,57
401918.760,5755841.960,78.660,68,108,40
401918.710,5755841.910,78.620,66,104,25
401918.950,5755842.200,78.890,81,121,57
401918.890,5755842.140,78.880,72,112,49
401918.840,5755842.110,78.820,84,123,65
401918.790,5755842.060,78.800,93,132,63
401918.740,5755842.020,78.760,92,130,57
401918.680,5755841.960,78.730,89,128,51
401918.630,5755841.940,78.670,87,127,28
401918.820,5755842.200,78.870,87,124,63
401918.770,5755842.150,78.850,95,131,74
401918.660,5755842.060,78.780,101,139,63
401918.610,5755842.010,78.750,99,137,62
401918.560,5755841.990,78.680,102,140,41
401918.650,5755842.170,78.800,92,130,52
401918.590,5755842.130,78.770,89,127,48
401918.540,5755842.090,78.720,101,138,56
401918.490,5755842.050,78.670,100,140,46
401918.430,5755841.990,78.660,90,130,27
401918.680,5755842.310,78.880,74,111,40
401918.630,5755842.270,78.850,70,107,35
401918.520,5755842.190,78.770,86,124,35
401918.470,5755842.140,78.730,90,126,32
401918.410,5755842.090,78.700,94,133,31
401918.360,5755842.040,78.680,93,132,25
401918.610,5755842.400,78.850,65,101,37
401918.560,5755842.360,78.800,59,94,27
401918.450,5755842.260,78.750,76,115,25
401918.400,5755842.210,78.730,83,120,22
401918.340,5755842.150,78.700,100,137,30
401918.290,5755842.120,78.650,93,132,24
401918.240,5755842.090,78.590,102,136,28
401918.540,5755842.450,78.850,56,92,25
401918.490,5755842.410,78.810,55,90,24
401918.430,5755842.350,78.810,81,118,39
401918.380,5755842.320,78.750,79,117,32
401918.330,5755842.290,78.690,92,127,25
401918.270,5755842.230,78.670,108,142,31
401918.220,5755842.180,78.650,109,142,34
401918.160,5755842.120,78.630,117,151,41
401918.470,5755842.490,78.880,78,114,36
401918.420,5755842.450,78.830,74,109,32
401918.360,5755842.410,78.800,90,125,36
401918.310,5755842.400,78.720,94,129,32
401918.260,5755842.370,78.660,112,148,39
401918.210,5755842.310,78.650,123,158,45
401918.140,5755842.220,78.670,119,153,43
401918.090,5755842.160,78.660,119,156,42
401918.350,5755842.530,78.800,80,114,38
401918.290,5755842.480,78.780,85,120,28
401918.240,5755842.450,78.730,107,141,38
401918.190,5755842.400,78.700,125,162,49
401918.130,5755842.360,78.660,122,161,44
401918.070,5755842.280,78.670,125,164,55
401918.020,5755842.210,78.670,119,162,53
401918.280,5755842.580,78.810,75,109,26
401918.220,5755842.550,78.770,89,124,27
401918.170,5755842.490,78.750,113,150,39
401918.120,5755842.470,78.690,118,156,40
401918.060,5755842.410,78.670,111,150,33
401918.000,5755842.330,78.680,116,154,39
401917.950,5755842.260,78.680,117,158,48
401918.150,5755842.610,78.760,112,151,41
401918.100,5755842.560,78.740,117,154,38
401918.040,5755842.510,78.700,111,147,31
401917.990,5755842.450,78.680,109,147,28
401917.930,5755842.390,78.670,113,151,34
401917.880,5755842.320,78.660,113,150,46
401918.080,5755842.650,78.770,121,162,51
401918.030,5755842.600,78.750,99,139,36
401917.970,5755842.550,78.730,93,131,30
401917.910,5755842.490,78.710,106,147,43
401917.850,5755842.420,78.700,111,151,41
401917.800,5755842.340,78.710,115,155,45
401918.010,5755842.690,78.800,107,145,48
401917.960,5755842.670,78.730,93,133,42
401917.900,5755842.590,78.750,95,135,39
401917.840,5755842.570,78.690,121,159,62
401917.780,5755842.460,78.730,116,155,49
401917.730,5755842.390,78.730,125,165,50
401917.940,5755842.740,78.810,112,150,54
401917.880,5755842.700,78.780,105,139,49
401917.820,5755842.640,78.760,105,141,43
401917.770,5755842.620,78.690,115,154,42
401917.710,5755842.520,78.730,119,160,43
401917.660,5755842.430,78.760,126,166,54
401917.810,5755842.750,78.780,77,107,28
401917.750,5755842.690,78.770,95,127,36
401917.700,5755842.650,78.730,126,165,52
401917.640,5755842.520,78.810,124,166,51
401917.580,5755842.460,78.800,125,163,54
401917.740,5755842.810,78.790,89,121,39
401917.680,5755842.740,78.790,120,154,55
401917.620,5755842.660,78.800,128,166,52
401917.570,5755842.580,78.800,123,161,49
401917.500,5755842.470,78.860,119,156,54
401917.660,5755842.850,78.810,116,151,56
401917.600,5755842.760,78.840,125,164,55
401917.550,5755842.680,78.850,119,157,45
401917.490,5755842.600,78.860,121,160,48
401917.590,5755842.900,78.820,128,164,63
401917.530,5755842.780,78.890,114,152,52
401917.480,5755842.700,78.900,111,149,49
401917.420,5755842.620,78.910,120,158,51
401917.360,5755842.530,78.940,113,151,50
401917.520,5755842.930,78.860,128,163,66
401917.460,5755842.810,78.930,112,147,56
401917.400,5755842.730,78.940,115,152,51
401917.340,5755842.640,78.970,111,148,48
401917.280,5755842.580,78.960,93,129,32
401917.440,5755842.950,78.900,122,156,58
401917.390,5755842.830,78.970,117,149,57
401917.330,5755842.750,78.990,115,151,49
401917.270,5755842.700,78.960,105,141,45
401917.210,5755842.620,78.980,106,142,47
401917.320,5755842.900,78.950,122,155,58
401917.260,5755842.820,78.980,122,157,59
401917.200,5755842.770,78.960,120,154,53
401917.150,5755842.730,78.910,118,152,54
401917.300,5755842.960,79.050,120,156,46
401917.240,5755842.920,79.010,112,145,41
401917.190,5755842.870,78.980,115,148,46
401917.130,5755842.840,78.940,110,145,41
401917.080,5755842.810,78.880,102,134,43
401917.170,5755842.950,79.040,100,133,36
401917.120,5755842.940,78.970,101,127,37
401917.060,5755842.930,78.900,101,131,38
401917.010,5755842.880,78.860,107,138,51
401917.050,5755843.010,78.950,95,118,40
401916.990,5755842.950,78.940,121,146,62
401916.930,5755842.840,79.000,119,147,61
401916.860,5755842.890,79.000,126,150,69
401916.780,5755842.920,79.050,127,146,64
401916.720,5755843.090,79.730,50,76,39
401916.650,5755843.090,79.810,22,46,20
401916.570,5755843.080,79.890,28,54,25
401916.500,5755843.140,79.890,39,64,30
401916.240,5755843.510,79.700,29,55,25
401916.180,5755843.420,79.720,40,67,32
401916.130,5755843.350,79.720,42,72,29
401916.070,5755843.280,79.720,56,87,32
401916.010,5755843.210,79.720,94,121,52
401916.180,5755843.590,79.670,45,75,32
401916.110,5755843.460,79.750,53,86,36
401916.060,5755843.380,79.760,56,92,37
401916.000,5755843.330,79.730,71,106,42
401915.940,5755843.260,79.740,98,129,58
401916.050,5755843.540,79.720,75,109,50
401915.980,5755843.400,79.810,82,116,52
401915.930,5755843.310,79.830,93,127,56
401916.030,5755843.650,79.740,66,102,45
401922.520,5755840.040,77.590,67,79,74
401922.450,5755840.090,77.560,73,83,73
401921.840,5755840.770,77.910,120,112,74
401921.770,5755840.820,77.890,125,115,75
401921.710,5755840.740,77.870,119,113,73
401921.650,5755840.660,77.860,113,112,69
401921.590,5755840.600,77.870,108,114,66
401921.530,5755840.540,77.880,110,119,66
401921.700,5755840.890,77.910,131,119,76
401921.640,5755840.810,77.900,121,114,72
401921.580,5755840.730,77.880,111,110,66
401921.520,5755840.650,77.860,106,114,66
401921.460,5755840.580,77.870,109,120,67
401921.570,5755840.880,77.930,126,116,75
401921.510,5755840.800,77.910,117,113,71
401921.450,5755840.740,77.910,107,113,67
401921.380,5755840.660,77.900,103,115,66
401921.320,5755840.600,77.930,99,113,65
401921.490,5755840.950,77.940,130,118,77
401921.430,5755840.890,77.970,124,116,74
401921.370,5755840.820,77.960,111,112,68
401921.310,5755840.750,77.960,104,109,69
401921.250,5755840.680,77.940,102,106,69
401921.190,5755840.620,77.970,110,110,72
401921.430,5755841.010,77.930,135,123,79
401921.360,5755840.960,77.980,132,120,78
401921.300,5755840.900,77.990,127,119,77
401921.230,5755840.830,77.990,124,118,78
401921.120,5755840.700,78.000,122,116,76
401921.290,5755841.020,77.970,134,122,78
401921.220,5755840.980,78.030,133,122,79
401921.050,5755840.780,78.030,130,128,82
401921.210,5755841.120,78.040,134,129,80
401921.150,5755841.050,78.050,140,141,93
401921.140,5755841.170,78.030,146,160,104
401921.080,5755841.110,78.040,157,183,129
401921.020,5755841.040,78.050,159,189,135
401920.960,5755840.980,78.060,149,175,124
401920.900,5755840.920,78.080,136,157,108
401920.840,5755840.850,78.080,126,144,96
401921.010,5755841.170,78.050,162,199,142
401920.950,5755841.100,78.030,161,196,141
401920.890,5755841.030,78.040,159,190,137
401920.840,5755840.980,78.070,150,178,126
401920.780,5755840.900,78.060,137,160,109
401920.940,5755841.240,78.050,164,201,143
401920.880,5755841.180,78.080,164,201,144
401920.820,5755841.100,78.050,165,200,145
401920.770,5755841.030,78.050,156,188,135
401920.710,5755840.960,78.050,141,168,119
401920.640,5755840.900,78.060,130,151,103
401920.810,5755841.240,78.070,164,201,144
401920.750,5755841.170,78.080,165,200,144
401920.700,5755841.090,78.050,154,188,133
401920.640,5755841.010,78.030,141,169,119
401920.580,5755840.950,78.040,137,159,112
401920.740,5755841.280,78.040,161,197,142
401920.680,5755841.230,78.070,161,197,141
401920.630,5755841.150,78.060,157,191,134
401920.570,5755841.080,78.040,152,180,129
401920.510,5755841.010,78.040,132,154,107
401920.670,5755841.370,78.090,156,192,136
401920.610,5755841.300,78.080,157,193,134
401920.560,5755841.220,78.060,158,191,135
401920.500,5755841.140,78.050,151,177,128
401920.430,5755841.090,78.080,124,141,98
401920.600,5755841.430,78.090,160,196,139
401920.540,5755841.360,78.080,158,193,135
401920.490,5755841.280,78.060,152,183,130
401920.430,5755841.200,78.050,135,155,110
401920.370,5755841.150,78.070,125,132,95
401920.310,5755841.060,78.050,118,124,86
401920.470,5755841.410,78.080,150,181,124
401920.420,5755841.320,78.050,142,168,117
401920.360,5755841.250,78.030,134,147,104
401920.300,5755841.200,78.080,124,124,87
401920.240,5755841.120,78.060,117,117,82
401920.400,5755841.490,78.120,132,151,101
401920.350,5755841.420,78.120,124,139,94
401920.280,5755841.350,78.120,124,128,88
401920.220,5755841.280,78.120,122,118,82
401920.160,5755841.210,78.110,127,124,89
401918.740,5755841.860,78.680,102,144,59
401918.670,5755841.910,78.660,104,143,56
401918.410,5755842.000,78.620,99,144,42
401916.040,5755843.360,79.810,90,126,51
401916.150,5755843.590,79.750,56,92,39
401916.100,5755843.600,79.930,70,108,48
401916.040,5755843.500,79.850,83,124,58
401915.980,5755843.460,79.890,89,130,60
401915.930,5755843.400,79.910,109,143,67
401915.980,5755843.590,79.920,78,119,58
401915.920,5755843.520,79.910,83,124,62
401915.860,5755843.460,79.920,103,141,74
401915.800,5755843.400,79.920,114,152,81
401915.970,5755843.710,79.920,52,90,37
401915.910,5755843.650,79.920,70,109,54
401915.850,5755843.590,79.930,87,126,70
401915.800,5755843.530,79.930,102,139,77
401915.740,5755843.460,79.930,98,136,72
401915.840,5755843.670,79.850,52,92,41
401915.790,5755843.660,79.960,75,114,63
401915.730,5755843.580,79.930,96,132,75
401915.670,5755843.510,79.910,89,128,64
401915.620,5755843.470,79.980,86,125,61
401915.580,5755843.440,80.040,88,123,59
401915.780,5755843.800,79.990,56,97,49
401915.730,5755843.730,79.980,75,117,63
401915.670,5755843.670,80.000,94,134,72
401915.610,5755843.620,80.030,91,132,62
401915.560,5755843.560,80.050,98,137,73
401915.660,5755843.750,79.900,67,110,57
401915.600,5755843.690,79.920,85,127,68
401915.550,5755843.660,79.980,90,131,69
401915.590,5755843.830,79.950,64,102,51
401915.540,5755843.760,79.950,72,113,59
401915.480,5755843.730,80.010,85,127,72
401915.430,5755843.690,80.070,96,137,75
401915.530,5755843.890,79.950,90,127,74
401915.470,5755843.820,79.950,83,120,66
401915.420,5755843.800,80.050,75,116,63
401915.370,5755843.750,80.080,79,123,65
401915.460,5755843.940,79.950,93,133,73
401915.410,5755843.880,79.960,92,126,67
401915.350,5755843.840,80.010,84,116,61
401915.300,5755843.800,80.060,70,108,53
401915.260,5755843.760,80.120,84,128,70
401915.340,5755843.960,80.000,97,129,67
401915.290,5755843.880,79.980,96,126,64
401915.230,5755843.840,80.030,73,108,48
401915.190,5755843.800,80.070,62,104,47
401915.280,5755844.040,80.050,98,133,72
401915.230,5755843.980,80.060,102,139,74
401915.170,5755843.920,80.070,96,133,70
401915.120,5755843.830,80.030,88,124,66
401915.070,5755843.810,80.110,94,131,73
401915.170,5755844.060,80.100,106,148,79
401915.110,5755844.000,80.110,114,151,90
401915.060,5755843.940,80.140,115,152,96
401915.010,5755843.920,80.220,107,144,89
401914.950,5755843.840,80.200,109,145,90
401915.050,5755844.080,80.190,99,139,78
401915.000,5755844.010,80.190,97,136,84
401914.990,5755844.150,80.220,97,134,81
401914.940,5755844.090,80.240,110,145,93
401914.920,5755844.190,80.190,88,123,74
401914.870,5755844.120,80.180,103,139,86
401914.820,5755844.070,80.210,92,133,77
401914.090,5755844.190,80.300,78,116,63
401914.150,5755844.410,80.370,114,149,86
401914.020,5755844.230,80.260,82,116,67
401914.140,5755844.520,80.360,102,139,83
401914.080,5755844.450,80.350,108,145,87
401914.020,5755844.360,80.290,115,147,87
401913.960,5755844.290,80.270,104,136,79
401914.080,5755844.580,80.360,106,140,93
401914.010,5755844.470,80.260,133,164,112
401913.960,5755844.420,80.300,130,163,102
401913.900,5755844.350,80.290,110,146,84
401913.830,5755844.270,80.230,104,140,82
401913.950,5755844.560,80.350,108,145,91
401913.900,5755844.510,80.360,112,151,91
401913.780,5755844.360,80.330,115,151,94
401913.890,5755844.610,80.340,96,136,80
401913.830,5755844.550,80.360,106,147,91
401913.780,5755844.490,80.360,116,155,100
401913.330,5755844.620,80.290,106,144,86
401913.270,5755844.540,80.270,112,148,88
401913.270,5755844.680,80.300,86,127,71
401913.210,5755844.600,80.260,89,130,67
401913.140,5755844.650,80.270,77,118,57
401913.100,5755844.620,80.340,86,124,62
401913.030,5755844.680,80.340,92,130,72
401928.150,5755837.200,79.680,87,108,51
401928.150,5755837.330,79.660,59,83,33
401928.140,5755837.290,79.590,60,81,33
401928.130,5755837.260,79.510,67,89,37
401928.120,5755837.420,79.590,83,109,43
401928.080,5755837.370,79.550,87,110,49
401928.050,5755837.320,79.520,95,118,57
401928.050,5755837.480,79.580,110,135,56
401928.020,5755837.430,79.550,113,136,63
401927.990,5755837.380,79.510,106,133,63
401927.950,5755837.320,79.480,86,114,47
401927.980,5755837.530,79.600,129,156,71
401927.940,5755837.480,79.560,116,142,65
401927.920,5755837.440,79.510,100,129,57
401927.910,5755837.400,79.430,82,110,46
401927.920,5755837.600,79.580,116,148,58
401927.870,5755837.540,79.560,95,128,45
401927.850,5755837.490,79.520,78,110,39
401927.830,5755837.460,79.440,65,94,31
401927.810,5755837.410,79.380,79,103,40
401927.860,5755837.660,79.570,115,146,62
401927.810,5755837.600,79.550,91,128,45
401927.780,5755837.550,79.510,69,106,34
401927.750,5755837.500,79.460,73,106,41
401927.720,5755837.460,79.410,73,105,42
401927.790,5755837.720,79.560,111,139,61
401927.740,5755837.660,79.540,86,122,46
401927.710,5755837.610,79.500,58,93,27
401927.690,5755837.570,79.450,61,93,32
401927.660,5755837.520,79.410,65,99,36
401927.740,5755837.790,79.530,122,146,63
401927.700,5755837.740,79.500,102,131,57
401927.660,5755837.680,79.480,64,96,35
401927.630,5755837.640,79.420,53,81,28
401927.580,5755837.570,79.410,64,94,35
401927.540,5755837.520,79.380,73,99,36
401927.690,5755837.870,79.490,115,141,61
401927.650,5755837.810,79.470,105,135,65
401927.610,5755837.750,79.440,69,101,44
401927.580,5755837.710,79.390,48,76,27
401927.520,5755837.630,79.410,53,80,28
401927.490,5755837.590,79.360,65,88,32
401927.460,5755837.550,79.300,84,110,42
401927.620,5755837.900,79.410,100,133,64
401927.570,5755837.840,79.390,79,113,50
401927.490,5755837.760,79.420,65,95,37
401927.440,5755837.690,79.420,58,84,31
401927.440,5755837.660,79.320,58,81,28
401927.420,5755837.610,79.260,78,102,37
401927.550,5755837.950,79.410,95,127,55
401927.490,5755837.880,79.400,77,108,44
401927.430,5755837.810,79.410,65,91,35
401927.430,5755837.790,79.300,56,80,32
401927.390,5755837.740,79.270,58,81,27
401927.370,5755837.690,79.220,82,105,32
401927.310,5755837.620,79.220,95,120,38
401927.480,5755838.010,79.400,78,110,40
401927.430,5755837.950,79.390,62,93,32
401927.370,5755837.870,79.400,46,74,25
401927.380,5755837.860,79.280,43,68,24
401927.340,5755837.810,79.240,61,84,26
401927.300,5755837.750,79.210,96,119,36
401927.260,5755837.690,79.200,104,128,41
401927.430,5755838.080,79.380,86,118,47
401927.370,5755838.010,79.360,75,107,38
401927.310,5755837.940,79.370,66,98,36
401927.320,5755837.930,79.250,57,86,29
401927.280,5755837.880,79.220,72,96,31
401927.240,5755837.810,79.200,93,118,39
401927.190,5755837.750,79.190,94,120,43
401927.140,5755837.690,79.170,78,103,38
401927.340,5755838.100,79.310,90,118,38
401927.300,5755838.050,79.280,81,112,39
401927.260,5755837.990,79.240,67,97,32
401927.200,5755837.930,79.230,74,101,34
401927.160,5755837.860,79.230,77,104,34
401927.110,5755837.800,79.200,72,99,32
401927.070,5755837.750,79.170,63,88,27
401927.260,5755838.130,79.230,91,122,37
401927.200,5755838.070,79.210,80,112,36
401927.140,5755837.990,79.230,73,101,30
401927.080,5755837.910,79.240,64,91,26
401926.970,5755837.780,79.230,58,84,21
401927.130,5755838.140,79.320,86,113,33
401927.080,5755838.080,79.310,89,116,42
401926.900,5755837.830,79.240,63,91,20
401926.830,5755837.890,79.240,87,113,26
401926.810,5755837.860,79.160,88,112,27
401926.990,5755838.240,79.220,86,117,35
401926.930,5755838.160,79.240,78,108,27
401926.770,5755837.960,79.210,109,133,43
401926.750,5755837.930,79.140,107,132,40
401926.920,5755838.290,79.230,95,125,35
401926.860,5755838.220,79.230,89,117,30
401926.700,5755838.010,79.220,114,134,44
401926.670,5755837.970,79.160,111,133,41
401926.590,5755838.020,79.190,99,122,34
401926.560,5755837.980,79.130,98,120,40
401926.710,5755838.320,79.260,99,125,46
401926.670,5755838.270,79.230,99,123,44
401926.640,5755838.220,79.180,90,115,33
401926.480,5755838.020,79.150,88,114,33
401926.670,5755838.410,79.190,86,108,41
401926.640,5755838.360,79.140,102,122,51
401926.610,5755838.320,79.090,102,123,44
401926.580,5755838.270,79.030,107,129,41
401926.430,5755838.090,79.110,94,123,31
401926.600,5755838.450,79.080,98,116,47
401926.570,5755838.400,79.040,103,124,46
401926.520,5755838.350,79.010,108,130,41
401926.410,5755838.210,79.140,111,134,41
401926.390,5755838.180,79.060,92,121,24
401926.400,5755838.170,78.930,86,114,23
401926.340,5755838.100,78.930,89,115,28
401926.540,5755838.500,78.950,110,130,55
401926.490,5755838.440,78.940,109,133,49
401926.330,5755838.260,79.150,100,126,42
401926.320,5755838.240,79.060,90,118,32
401926.320,5755838.220,78.940,82,111,27
401926.250,5755838.140,78.960,84,110,28
401926.430,5755838.510,78.920,100,128,54
401926.310,5755838.360,78.940,93,121,46
401926.260,5755838.290,78.930,82,107,33
401926.180,5755838.200,78.960,77,101,28
401926.200,5755838.380,79.010,102,131,56
401926.170,5755838.330,78.960,88,118,44
401926.100,5755838.250,78.990,76,103,30
401926.150,5755838.470,79.090,92,122,42
401926.100,5755838.400,79.080,99,131,55
401926.070,5755838.360,79.020,98,129,53
401925.980,5755838.270,79.070,97,123,46
401926.190,5755838.670,79.210,97,127,55
401926.140,5755838.610,79.210,90,119,51
401926.100,5755838.550,79.180,89,114,40
401926.060,5755838.500,79.140,88,117,39
401926.030,5755838.460,79.070,101,131,56
401925.980,5755838.400,79.060,110,134,56
401925.920,5755838.330,79.060,116,137,58
401926.060,5755838.660,79.220,87,113,43
401926.030,5755838.610,79.170,99,117,44
401925.970,5755838.540,79.170,101,126,51
401925.920,5755838.480,79.160,99,128,54
401925.890,5755838.440,79.100,102,128,47
401925.860,5755838.400,79.050,105,128,45
401925.820,5755838.350,79.000,98,125,47
401926.000,5755838.720,79.200,104,130,54
401925.940,5755838.650,79.210,110,132,53
401925.890,5755838.590,79.190,104,132,55
401925.860,5755838.540,79.150,93,124,51
401925.850,5755838.520,79.050,95,124,47
401925.750,5755838.420,79.120,99,129,50
401925.730,5755838.530,79.150,83,112,40
401925.680,5755838.470,79.130,94,126,49
401925.600,5755838.520,79.150,97,130,50
401925.580,5755838.490,79.060,83,111,33
401925.490,5755838.510,78.990,114,134,63
401925.500,5755838.690,79.310,115,150,80
401925.480,5755838.650,79.240,111,148,76
401925.420,5755838.580,79.240,115,150,85
401925.410,5755838.550,79.020,121,146,74
401925.540,5755838.900,79.440,86,109,53
401925.420,5755838.730,79.330,108,142,81
401925.350,5755838.650,79.220,112,148,88
401925.330,5755838.610,79.160,97,130,69
401925.340,5755838.780,79.350,95,124,68
401925.270,5755838.690,79.260,84,121,64
401925.240,5755838.660,79.180,80,113,54
401925.250,5755838.820,79.380,107,132,73
401925.220,5755838.780,79.320,97,127,71
401925.190,5755838.740,79.270,96,128,74
401925.110,5755838.780,79.300,116,144,92
401924.960,5755838.890,79.190,96,127,67
401924.330,5755839.530,79.060,62,95,40
401924.270,5755839.600,79.040,79,115,48
401924.180,5755839.630,79.080,90,125,60
401924.120,5755839.560,79.080,86,122,61
401924.110,5755839.690,79.080,95,128,66
401924.050,5755839.620,79.090,95,130,67
401923.730,5755839.380,79.110,82,119,47
401922.470,5755840.510,77.770,83,79,53
401922.020,5755840.700,77.850,113,100,54
401921.940,5755840.750,77.860,119,105,55
401921.860,5755840.800,77.890,125,110,56
401921.810,5755840.740,77.860,125,110,57
401921.760,5755840.690,77.830,121,109,56
401921.690,5755840.600,77.850,115,107,51
401921.620,5755840.510,77.890,111,107,48
401921.560,5755840.450,77.860,114,112,47
401921.720,5755840.780,77.910,129,113,58
401921.660,5755840.710,77.890,122,112,55
401921.600,5755840.640,77.890,108,108,49
401921.540,5755840.560,77.910,106,110,47
401921.480,5755840.490,77.890,111,114,45
401921.640,5755840.820,77.940,131,115,57
401921.580,5755840.750,77.910,121,111,53
401921.530,5755840.680,77.900,108,109,48
401921.460,5755840.610,77.910,106,113,48
401921.410,5755840.550,77.880,109,115,47
401921.560,5755840.870,77.940,134,115,57
401921.510,5755840.810,77.920,124,112,56
401921.450,5755840.740,77.910,111,110,50
401921.380,5755840.660,77.930,105,112,49
401921.340,5755840.610,77.880,100,108,49
401921.420,5755840.850,77.960,128,113,59
401921.370,5755840.780,77.940,115,109,53
401921.310,5755840.710,77.940,107,106,51
401921.250,5755840.640,77.930,102,102,52
401921.350,5755840.900,77.970,134,115,62
401921.290,5755840.830,77.960,129,113,61
401921.230,5755840.760,77.960,126,111,61
401921.170,5755840.700,77.940,122,108,61
401921.320,5755841.010,78.000,136,117,62
401921.270,5755840.950,78.000,135,116,62
401921.210,5755840.880,77.980,133,115,62
401921.150,5755840.820,77.970,130,113,62
401921.100,5755840.750,77.960,127,111,61
401921.180,5755840.980,78.040,135,120,63
401921.120,5755840.910,78.030,136,125,67
401921.070,5755840.850,78.010,132,125,67
401921.030,5755840.800,77.980,129,124,67
401920.980,5755840.890,78.060,132,145,81
401920.940,5755840.830,78.040,127,136,75
401920.910,5755840.940,78.070,130,155,90
401920.860,5755840.880,78.060,120,141,79
401921.020,5755841.230,78.040,159,191,118
401920.950,5755841.140,78.090,157,189,118
401920.880,5755841.060,78.090,153,184,116
401920.840,5755841.000,78.070,143,174,107
401920.790,5755840.940,78.060,129,158,95
401920.730,5755840.870,78.050,114,134,77
401920.880,5755841.210,78.070,159,192,120
401920.820,5755841.130,78.080,159,191,120
401920.770,5755841.060,78.080,150,182,116
401920.710,5755841.000,78.050,133,162,100
401920.650,5755840.920,78.060,124,146,86
401920.810,5755841.270,78.060,157,192,117
401920.750,5755841.200,78.050,158,190,117
401920.700,5755841.120,78.070,151,182,114
401920.640,5755841.060,78.050,134,164,98
401920.580,5755840.980,78.060,129,153,90
401920.740,5755841.330,78.060,154,188,116
401920.680,5755841.260,78.060,155,186,115
401920.620,5755841.180,78.080,152,183,114
401920.570,5755841.120,78.050,145,175,110
401920.510,5755841.050,78.050,124,148,89
401920.660,5755841.380,78.080,150,183,113
401920.600,5755841.300,78.090,151,182,112
401920.550,5755841.240,78.070,150,180,113
401920.500,5755841.180,78.050,139,167,108
401920.430,5755841.100,78.060,110,126,75
401920.590,5755841.440,78.090,155,189,117
401920.530,5755841.370,78.080,154,185,114
401920.480,5755841.290,78.070,147,176,110
401920.430,5755841.230,78.050,126,148,93
401920.360,5755841.150,78.080,108,112,66
401920.300,5755841.080,78.080,114,113,64
401920.510,5755841.470,78.120,156,185,114
401920.450,5755841.400,78.100,146,170,105
401920.410,5755841.350,78.080,134,152,92
401920.350,5755841.290,78.060,124,134,83
401920.280,5755841.200,78.090,114,111,68
401920.210,5755841.110,78.110,117,111,68
401920.380,5755841.480,78.080,129,138,84
401920.330,5755841.410,78.080,117,117,70
401920.280,5755841.340,78.070,119,113,70
401920.210,5755841.260,78.090,119,111,70
401920.140,5755841.170,78.120,119,109,71
401920.310,5755841.540,78.080,122,115,73
401920.260,5755841.470,78.080,118,106,67
401920.190,5755841.380,78.110,121,109,70
401920.130,5755841.300,78.120,123,111,72
401920.070,5755841.220,78.130,120,109,73
401920.230,5755841.580,78.120,135,126,92
401920.180,5755841.500,78.130,134,122,91
401920.110,5755841.430,78.130,136,124,92
401920.050,5755841.350,78.130,136,125,91
401919.990,5755841.270,78.150,136,129,92
401920.160,5755841.650,78.100,149,135,107
401920.100,5755841.560,78.130,156,141,111
401920.040,5755841.480,78.140,163,153,115
401919.980,5755841.400,78.150,159,159,115
401919.910,5755841.320,78.170,151,156,109
401920.080,5755841.690,78.120,148,135,104
401920.030,5755841.610,78.140,155,142,105
401919.950,5755841.510,78.190,155,151,101
401919.890,5755841.430,78.200,141,146,90
401919.830,5755841.360,78.200,132,140,86
401919.990,5755841.690,78.240,147,143,100
401919.930,5755841.610,78.240,148,143,97
401919.870,5755841.560,78.220,149,149,94
401919.810,5755841.490,78.210,131,140,78
401919.770,5755841.450,78.160,125,131,75
401919.910,5755841.740,78.250,146,155,93
401919.850,5755841.670,78.250,147,154,88
401919.800,5755841.620,78.210,158,164,97
401919.740,5755841.550,78.210,140,150,87
401919.690,5755841.480,78.200,130,135,82
401919.830,5755841.780,78.280,136,155,77
401919.770,5755841.710,78.280,141,158,80
401919.720,5755841.660,78.240,143,156,82
401919.660,5755841.590,78.240,133,139,77
401919.600,5755841.520,78.240,146,148,104
401919.760,5755841.800,78.470,132,156,84
401919.730,5755841.790,78.370,131,155,77
401919.680,5755841.730,78.350,132,155,73
401919.630,5755841.690,78.300,132,154,77
401919.580,5755841.640,78.270,129,141,74
401919.520,5755841.560,78.270,149,160,109
401919.650,5755841.780,78.600,133,164,89
401919.630,5755841.790,78.460,132,162,82
401919.590,5755841.750,78.410,137,166,84
401919.510,5755841.640,78.480,124,151,72
401919.490,5755841.660,78.330,122,141,65
401919.440,5755841.590,78.320,129,141,77
401919.520,5755841.780,78.590,122,154,77
401919.490,5755841.760,78.500,124,156,80
401919.430,5755841.690,78.500,114,142,66
401919.380,5755841.620,78.490,115,137,62
401919.320,5755841.570,78.460,120,135,63
401919.480,5755841.850,78.690,115,149,77
401919.450,5755841.820,78.620,102,137,62
401919.400,5755841.780,78.560,103,137,61
401919.350,5755841.730,78.520,101,133,57
401919.300,5755841.680,78.500,102,127,52
401919.240,5755841.610,78.500,110,128,47
401919.410,5755841.890,78.710,101,136,61
401919.340,5755841.800,78.750,93,130,55
401919.300,5755841.780,78.670,100,136,64
401919.270,5755841.770,78.570,89,124,52
401919.220,5755841.700,78.550,82,109,41
401919.160,5755841.640,78.550,96,111,40
401919.270,5755841.870,78.730,95,133,61
401919.210,5755841.800,78.730,101,138,71
401919.170,5755841.770,78.660,88,122,53
401919.140,5755841.760,78.560,83,112,41
401919.080,5755841.680,78.570,101,124,47
401919.090,5755841.810,78.690,93,129,57
401919.050,5755841.770,78.650,92,126,47
401919.010,5755841.740,78.580,104,137,53
401919.110,5755841.930,78.820,88,125,55
401919.060,5755841.890,78.780,100,139,66
401919.020,5755841.860,78.710,89,129,55
401918.970,5755841.820,78.650,86,125,47
401918.930,5755841.780,78.590,85,122,40
401919.040,5755842.000,78.810,81,118,41
401918.990,5755841.950,78.770,91,130,51
401918.950,5755841.910,78.710,89,130,52
401918.900,5755841.870,78.660,82,122,43
401918.860,5755841.820,78.610,78,116,37
401918.970,5755842.050,78.800,74,111,34
401918.920,5755842.000,78.770,84,120,44
401918.880,5755841.970,78.700,89,126,51
401918.830,5755841.930,78.650,73,115,40
401918.790,5755841.900,78.580,65,103,29
401918.740,5755841.840,78.570,81,115,37
401918.940,5755842.150,78.840,73,107,42
401918.890,5755842.090,78.840,71,106,42
401918.840,5755842.040,78.790,89,123,54
401918.800,5755842.000,78.750,91,125,53
401918.750,5755841.970,78.690,73,115,44
401918.710,5755841.930,78.630,64,104,27
401918.670,5755841.900,78.570,79,114,26
401918.820,5755842.140,78.840,92,127,71
401918.770,5755842.100,78.790,95,131,64
401918.720,5755842.040,78.780,93,129,53
401918.670,5755842.000,78.740,92,133,55
401918.630,5755841.980,78.650,87,129,38
401918.590,5755841.940,78.610,93,135,28
401918.700,5755842.150,78.810,96,133,57
401918.560,5755842.030,78.670,104,143,51
401918.520,5755842.000,78.590,97,139,31
401918.620,5755842.200,78.820,84,121,44
401918.590,5755842.180,78.740,81,117,41
401918.540,5755842.130,78.710,90,124,44
401918.480,5755842.070,78.690,98,135,43
401918.430,5755842.020,78.660,88,128,27
401918.660,5755842.390,78.840,71,109,40
401918.610,5755842.320,78.830,62,100,29
401918.550,5755842.260,78.820,68,105,28
401918.510,5755842.230,78.760,80,116,33
401918.470,5755842.190,78.710,83,117,28
401918.410,5755842.140,78.680,88,125,27
401918.360,5755842.090,78.650,90,130,24
401918.310,5755842.040,78.620,98,135,23
401918.540,5755842.380,78.830,50,85,24
401918.490,5755842.330,78.810,66,103,30
401918.450,5755842.300,78.740,75,112,29
401918.390,5755842.250,78.710,78,114,22
401918.340,5755842.200,78.680,94,130,28
401918.290,5755842.140,78.660,91,132,26
401918.240,5755842.100,78.610,93,131,25
401918.470,5755842.440,78.830,58,92,29
401918.420,5755842.400,78.790,82,116,40
401918.380,5755842.360,78.740,88,123,39
401918.330,5755842.320,78.690,89,125,24
401918.280,5755842.270,78.660,103,139,29
401918.220,5755842.210,78.650,106,141,35
401918.170,5755842.140,78.630,114,146,41
401918.400,5755842.510,78.820,81,115,35
401918.350,5755842.450,78.800,87,120,31
401918.310,5755842.420,78.740,94,128,31
401918.260,5755842.380,78.700,109,146,37
401918.200,5755842.310,78.690,121,159,44
401918.140,5755842.250,78.680,119,157,48
401918.090,5755842.170,78.680,118,154,48
401918.280,5755842.530,78.770,81,116,25
401918.230,5755842.480,78.740,104,139,34
401918.180,5755842.420,78.730,122,161,52
401918.120,5755842.350,78.720,118,160,44
401918.090,5755842.340,78.630,123,162,48
401918.030,5755842.270,78.630,124,164,54
401918.210,5755842.580,78.770,88,125,32
401918.160,5755842.520,78.760,109,148,37
401918.120,5755842.500,78.680,117,157,42
401918.070,5755842.450,78.650,109,151,33
401918.020,5755842.390,78.620,110,150,31
401917.960,5755842.320,78.620,120,158,47
401917.910,5755842.250,78.610,113,152,54
401918.140,5755842.630,78.790,119,157,55
401918.090,5755842.590,78.750,116,155,47
401918.050,5755842.540,78.700,105,142,31
401918.000,5755842.500,78.650,105,143,27
401917.940,5755842.450,78.630,108,147,29
401917.890,5755842.380,78.620,110,149,38
401917.840,5755842.320,78.610,107,145,44
401918.070,5755842.680,78.790,114,151,49
401918.020,5755842.630,78.770,95,133,40
401917.970,5755842.590,78.720,86,123,27
401917.920,5755842.540,78.680,107,143,45
401917.870,5755842.490,78.640,110,149,46
401917.810,5755842.420,78.650,114,152,41
401917.760,5755842.350,78.650,118,156,43
401917.940,5755842.670,78.790,96,137,52
401917.890,5755842.630,78.760,96,134,41
401917.840,5755842.580,78.710,115,151,51
401917.790,5755842.530,78.680,114,154,47
401917.730,5755842.460,78.680,119,158,46
401917.680,5755842.390,78.680,127,164,50
401917.870,5755842.720,78.800,96,133,47
401917.820,5755842.670,78.780,99,131,42
401917.770,5755842.650,78.700,115,150,42
401917.720,5755842.590,78.680,120,161,43
401917.660,5755842.500,78.710,125,163,50
401917.610,5755842.440,78.690,129,167,59
401917.790,5755842.770,78.810,76,107,29
401917.740,5755842.730,78.780,91,119,32
401917.680,5755842.650,78.780,127,162,51
401917.630,5755842.580,78.790,126,165,48
401917.570,5755842.500,78.800,122,159,45
401917.730,5755842.850,78.780,93,124,38
401917.680,5755842.800,78.760,119,153,50
401917.610,5755842.710,78.790,124,162,46
401917.550,5755842.610,78.830,123,163,42
401917.500,5755842.550,78.810,121,159,46
401917.600,5755842.840,78.780,118,154,52
401917.530,5755842.750,78.830,114,152,46
401917.470,5755842.650,78.870,118,157,42
401917.420,5755842.590,78.850,121,159,48
401917.360,5755842.510,78.870,116,151,53
401917.460,5755842.800,78.830,115,150,53
401917.410,5755842.710,78.860,119,155,48
401917.340,5755842.610,78.900,105,141,35
401917.280,5755842.550,78.890,93,127,31
401917.390,5755842.820,78.900,116,149,54
401917.320,5755842.730,78.920,110,145,43
401917.250,5755842.610,79.000,94,129,31
401917.210,5755842.600,78.910,95,130,34
401917.310,5755842.860,78.920,123,154,65
401917.250,5755842.790,78.930,120,151,55
401917.190,5755842.710,78.940,118,150,52
401917.140,5755842.670,78.890,109,146,50
401917.180,5755842.840,78.930,117,147,54
401917.120,5755842.780,78.910,113,144,52
401917.070,5755842.740,78.870,111,143,56
401917.020,5755842.690,78.840,111,142,57
401917.120,5755842.930,78.890,119,140,63
401917.060,5755842.870,78.870,103,131,51
401916.950,5755842.740,78.850,122,150,66
401917.030,5755842.930,78.980,121,134,66
401916.970,5755842.870,78.970,119,144,63
401916.910,5755842.790,78.970,118,144,60
401916.870,5755842.760,78.910,127,153,71
401916.950,5755842.950,79.040,126,145,66
401916.890,5755842.900,79.010,125,151,67
401916.850,5755842.860,78.960,124,149,68
401916.800,5755842.840,78.880,132,156,72
401916.900,5755842.990,79.170,96,114,44
401916.850,5755842.940,79.150,111,131,48
401916.810,5755842.910,79.090,121,143,56
401916.760,5755842.870,79.030,131,150,67
401916.820,5755843.020,79.210,70,87,34
401916.770,5755842.950,79.220,90,106,37
401916.720,5755842.910,79.180,119,136,51
401916.670,5755842.880,79.120,129,146,63
401916.730,5755842.990,79.350,44,63,22
401916.680,5755842.940,79.310,78,95,34
401916.630,5755842.920,79.250,107,125,46
401916.720,5755843.070,79.820,51,76,36
401916.680,5755843.050,79.740,42,64,33
401916.630,5755843.070,79.900,31,57,25
401916.600,5755843.060,79.810,18,40,19
401916.560,5755843.110,79.930,37,65,32
401916.520,5755843.110,79.830,20,43,19
401916.510,5755843.190,79.610,22,45,21
401916.470,5755843.160,79.540,55,78,32
401916.420,5755843.110,79.510,95,124,48
401916.500,5755843.180,79.900,31,56,25
401916.440,5755843.240,79.610,44,71,29
401916.400,5755843.200,79.560,59,87,32
401916.350,5755843.150,79.520,79,111,38
401916.300,5755843.100,79.490,82,118,37
401916.360,5755843.260,79.670,55,81,30
401916.320,5755843.230,79.600,57,85,30
401916.270,5755843.170,79.580,81,111,41
401916.220,5755843.120,79.550,94,126,47
401916.170,5755843.100,79.480,90,125,45
401916.290,5755843.280,79.700,37,58,21
401916.240,5755843.240,79.660,47,71,24
401916.190,5755843.200,79.620,68,92,32
401916.140,5755843.140,79.600,93,119,47
401916.260,5755843.360,79.780,25,47,21
401916.220,5755843.330,79.720,37,59,26
401916.160,5755843.260,79.710,43,68,25
401916.110,5755843.210,79.700,67,92,34
401916.050,5755843.150,79.680,89,118,47
401916.210,5755843.470,79.690,33,57,25
401916.150,5755843.390,79.710,43,69,30
401916.090,5755843.320,79.720,51,79,30
401916.030,5755843.250,79.710,78,109,45
401916.130,5755843.490,79.750,50,81,36
401916.080,5755843.430,79.740,61,92,41
401916.010,5755843.350,79.760,72,104,42
401915.960,5755843.280,79.750,93,127,55
401916.120,5755843.630,79.730,58,91,42
401916.060,5755843.530,79.780,70,105,49
401915.990,5755843.440,79.810,88,118,55
401915.930,5755843.360,79.830,101,130,60
401915.870,5755843.260,79.870,112,143,70
401916.040,5755843.620,79.830,62,99,43
401915.970,5755843.510,79.890,74,109,49
401915.910,5755843.430,79.900,93,125,58
401915.850,5755843.360,79.910,111,139,70
401915.800,5755843.280,79.920,114,145,77
401915.960,5755843.640,79.880,58,94,40
401915.900,5755843.560,79.900,86,118,56
401915.830,5755843.460,79.940,114,143,77
401915.770,5755843.370,79.980,113,144,81
401915.870,5755843.640,79.970,53,88,38
401915.810,5755843.560,79.980,82,114,54
401915.750,5755843.470,80.020,120,147,85
401915.710,5755843.400,80.020,112,142,85
401915.810,5755843.710,79.950,57,94,46
401915.740,5755843.600,80.010,79,116,56
401915.780,5755843.770,80.040,58,95,46
401915.730,5755843.700,80.040,75,113,64
401915.600,5755843.840,80.000,84,122,68
401915.400,5755843.850,80.050,113,144,84
401915.330,5755843.910,80.050,104,136,74
401915.270,5755843.790,80.130,111,142,82
401915.260,5755843.960,80.050,108,139,74
401915.240,5755844.050,80.110,99,132,67
401915.180,5755843.940,80.160,115,146,80
401914.100,5755844.610,80.300,92,126,70
401914.040,5755844.650,80.310,74,110,53
401913.750,5755844.300,80.340,96,132,75
401913.740,5755844.400,80.360,128,162,107
401913.690,5755844.360,80.320,100,138,83
401913.640,5755844.350,80.250,94,131,76
401913.670,5755844.470,80.340,113,151,94
401913.620,5755844.430,80.310,92,130,74
401913.570,5755844.380,80.280,88,125,71
401913.550,5755844.470,80.320,95,133,79
401913.500,5755844.430,80.290,75,112,60
401913.480,5755844.510,80.340,86,123,68
401913.430,5755844.470,80.300,64,100,47
401913.420,5755844.560,80.350,94,130,67
401913.360,5755844.520,80.310,92,127,66
401913.290,5755844.560,80.330,111,142,75
401913.280,5755844.670,80.350,106,140,75
401913.230,5755844.630,80.320,95,131,64
401913.180,5755844.610,80.260,78,114,48
401913.220,5755844.760,80.310,89,123,59
401913.170,5755844.740,80.250,82,118,55
401913.120,5755844.700,80.210,77,115,52
401913.060,5755844.630,80.210,95,131,66
401913.210,5755844.870,80.330,78,111,45
401913.160,5755844.830,80.290,84,119,58
401913.100,5755844.790,80.250,91,126,67
401913.050,5755844.730,80.250,89,127,67
401913.190,5755844.960,80.380,65,95,41
401913.100,5755844.940,80.220,111,142,82
401913.050,5755844.930,80.140,113,144,85
401912.980,5755844.780,80.250,100,140,80
401932.350,5755835.650,80.310,95,123,58
401932.410,5755835.600,80.330,78,107,45
401932.490,5755835.560,80.350,75,108,43
401932.610,5755835.440,80.340,90,119,47
401932.660,5755835.500,80.340,92,123,46
401932.680,5755835.380,80.340,94,122,47
401932.720,5755835.450,80.340,95,126,51
401932.740,5755835.320,80.340,97,126,51
401932.790,5755835.390,80.340,105,136,65
401932.810,5755835.270,80.340,107,138,66
401932.860,5755835.340,80.350,102,134,63
401932.930,5755835.160,80.340,84,114,54
401932.980,5755835.230,80.350,94,120,55
401932.990,5755835.080,80.310,87,118,57
401933.040,5755835.160,80.340,97,126,60
401933.100,5755835.230,80.330,108,136,67
401933.050,5755835.010,80.290,97,127,65
401933.100,5755835.080,80.300,99,134,71
401933.170,5755835.180,80.350,96,125,61
401933.110,5755834.950,80.290,101,127,66
401933.170,5755835.030,80.310,98,133,70
401933.230,5755835.110,80.330,78,113,51
401933.290,5755835.190,80.360,82,111,42
401933.180,5755834.900,80.300,101,130,67
401933.230,5755834.970,80.300,110,140,74
401933.290,5755835.040,80.310,106,139,74
401933.350,5755835.110,80.320,104,137,71
401933.250,5755834.850,80.300,98,127,61
401933.290,5755834.910,80.300,95,122,53
401933.350,5755834.980,80.310,98,126,60
401933.410,5755835.040,80.310,99,130,68
401933.310,5755834.780,80.290,77,107,47
401933.360,5755834.850,80.290,84,108,46
401933.420,5755834.920,80.300,89,115,49
401933.480,5755834.990,80.310,92,120,58
401933.540,5755835.070,80.330,84,115,55
401933.380,5755834.730,80.300,67,96,41
