//X,Y,Z,R,G,B
401826.550,5755900.540,80.000,125,151,94
401826.720,5755900.560,79.860,132,154,98
401826.810,5755900.600,79.820,145,156,105
401826.900,5755900.640,79.810,138,140,89
401826.980,5755900.680,79.790,100,103,57
401827.060,5755900.730,79.780,86,102,59
401827.140,5755900.770,79.790,116,133,82
401827.210,5755900.810,79.800,131,147,86
401827.290,5755900.860,79.800,129,145,82
401827.360,5755900.900,79.810,106,123,58
401827.420,5755900.950,79.810,106,124,61
401827.500,5755900.990,79.810,121,136,74
401827.560,5755901.040,79.830,130,147,85
401827.650,5755901.080,79.820,138,156,94
401827.730,5755901.120,79.790,147,163,102
401827.820,5755901.160,79.780,140,151,95
401827.890,5755901.210,79.790,121,131,81
401827.970,5755901.250,79.780,116,126,74
401828.070,5755901.290,79.750,106,114,64
401828.140,5755901.330,79.760,94,109,63
401828.220,5755901.380,79.750,93,106,56
401828.270,5755901.430,79.800,87,100,46
401828.340,5755901.470,79.800,101,122,64
401828.400,5755901.520,79.810,125,145,78
401828.500,5755901.570,79.780,130,145,75
401828.560,5755901.610,79.810,130,142,71
401828.650,5755901.650,79.780,129,143,76
401828.720,5755901.700,79.790,131,146,81
401828.810,5755901.740,79.770,140,155,93
401828.890,5755901.780,79.760,127,144,90
401828.970,5755901.830,79.760,121,138,94
401829.020,5755901.870,79.780,110,128,87
401829.100,5755901.920,79.790,101,128,85
401829.160,5755901.960,79.810,98,126,78
401829.580,5755902.180,79.740,139,143,90
401829.680,5755902.220,79.720,151,155,100
401829.760,5755902.260,79.700,157,158,92
401829.860,5755902.300,79.670,140,147,74
401829.980,5755902.340,79.620,116,125,62
401830.050,5755902.390,79.620,109,121,55
401830.060,5755902.440,79.720,108,122,55
401830.120,5755902.480,79.740,105,118,52
401830.250,5755902.520,79.660,110,123,58
401830.310,5755902.570,79.680,113,125,59
401830.380,5755902.610,79.680,108,123,60
401830.430,5755902.660,79.710,98,113,52
401830.480,5755902.700,79.750,80,96,38
401830.480,5755902.750,79.850,77,97,38
401830.500,5755902.800,79.920,82,100,43
401830.570,5755902.840,79.940,91,108,47
401830.630,5755902.890,79.950,86,104,38
401830.680,5755902.940,80.000,81,101,35
401830.730,5755902.980,80.030,84,106,41
401825.720,5755900.000,80.090,94,116,60
401825.830,5755900.030,80.040,88,105,52
401825.910,5755900.070,80.030,77,99,46
401826.000,5755900.110,80.000,86,113,57
401826.050,5755900.160,80.050,99,120,63
401826.510,5755900.420,80.020,118,140,84
401826.620,5755900.450,79.960,121,143,83
401827.160,5755900.700,79.820,126,140,85
401827.240,5755900.740,79.820,126,141,78
401827.320,5755900.780,79.820,116,131,72
401827.390,5755900.830,79.820,95,116,56
401827.470,5755900.870,79.810,101,122,60
401827.550,5755900.910,79.800,110,128,63
401827.630,5755900.960,79.790,127,146,82
401827.710,5755901.000,79.780,136,151,91
401827.790,5755901.040,79.780,138,153,97
401827.870,5755901.090,79.770,132,144,91
401827.950,5755901.130,79.760,127,139,88
401828.030,5755901.170,79.750,122,134,80
401828.130,5755901.210,79.730,117,132,80
401828.190,5755901.260,79.740,112,129,80
401828.250,5755901.300,79.770,96,115,57
401828.320,5755901.360,79.780,85,109,50
401828.390,5755901.400,79.790,99,125,64
401828.450,5755901.450,79.800,105,124,60
401828.520,5755901.490,79.810,115,130,63
401828.600,5755901.540,79.800,127,139,71
401828.690,5755901.580,79.780,130,143,79
401828.760,5755901.620,79.800,127,143,81
401828.840,5755901.670,79.790,120,137,77
401828.920,5755901.710,79.790,107,124,68
401828.990,5755901.750,79.800,88,107,57
401829.060,5755901.800,79.800,81,100,55
401829.130,5755901.840,79.810,86,107,63
401829.690,5755902.140,79.760,155,156,105
401829.810,5755902.180,79.690,160,157,103
401829.920,5755902.220,79.650,143,143,87
401830.040,5755902.260,79.590,121,128,69
401830.110,5755902.310,79.600,112,123,61
401830.180,5755902.350,79.610,111,122,58
401830.230,5755902.400,79.640,107,118,54
401830.300,5755902.440,79.660,107,119,54
401830.350,5755902.490,79.690,103,115,46
401830.410,5755902.530,79.710,90,106,40
401830.450,5755902.580,79.740,79,95,37
401830.500,5755902.630,79.780,74,92,36
401830.490,5755902.680,79.890,85,104,45
401830.590,5755902.770,79.970,86,104,44
401830.690,5755902.810,79.940,80,100,33
401830.730,5755902.870,79.990,86,108,39
401830.830,5755902.960,80.050,88,112,42
401831.300,5755903.270,80.130,43,57,22
401831.460,5755903.350,80.110,54,76,28
401828.420,5755901.330,79.810,102,125,64
401828.480,5755901.380,79.830,95,116,55
401828.550,5755901.420,79.840,97,117,50
401828.640,5755901.460,79.820,116,135,65
401828.720,5755901.500,79.810,119,137,69
401828.800,5755901.550,79.800,119,137,74
401828.880,5755901.590,79.800,114,132,73
401828.960,5755901.630,79.800,106,125,68
401829.020,5755901.680,79.810,87,106,50
401829.100,5755901.720,79.820,70,89,38
401829.170,5755901.770,79.810,64,82,36
401829.240,5755901.810,79.810,74,92,40
401829.720,5755902.070,79.770,140,144,96
401829.880,5755902.100,79.650,137,142,93
401830.000,5755902.140,79.600,128,134,79
401830.080,5755902.190,79.590,117,127,69
401830.140,5755902.230,79.620,106,118,58
401830.220,5755902.270,79.610,102,115,54
401830.280,5755902.320,79.640,109,120,58
401830.340,5755902.370,79.660,100,112,48
401830.390,5755902.410,79.700,93,109,41
401830.440,5755902.460,79.730,86,103,33
401830.500,5755902.500,79.750,71,87,31
401830.490,5755902.560,79.860,68,85,33
401830.600,5755902.600,79.810,80,98,41
401830.650,5755902.640,79.840,82,101,44
401830.900,5755902.880,80.010,91,114,41
401831.460,5755903.230,80.070,45,65,21
401831.500,5755903.280,80.120,63,84,34
401831.580,5755903.320,80.100,94,112,48
401831.610,5755903.370,80.160,114,131,62
401831.700,5755903.410,80.140,124,135,71
401831.800,5755903.450,80.100,104,115,51
401831.870,5755903.490,80.110,72,91,29
401831.940,5755903.540,80.120,71,96,36
401832.000,5755903.580,80.150,87,112,49
401832.040,5755903.630,80.190,87,111,43
401832.120,5755903.670,80.180,84,109,42
401829.600,5755901.910,79.790,125,143,93
401829.690,5755901.950,79.780,128,141,92
401830.300,5755902.250,79.670,105,115,54
401830.360,5755902.290,79.690,90,101,41
401830.410,5755902.340,79.730,89,105,38
401830.450,5755902.390,79.780,93,111,38
401830.490,5755902.430,79.820,76,93,34
401830.540,5755902.490,79.860,75,92,39
401830.630,5755902.530,79.830,79,94,39
401830.690,5755902.580,79.840,76,94,37
401830.710,5755902.630,79.920,75,94,36
401830.820,5755902.720,79.980,91,111,41
401831.470,5755903.160,80.120,65,85,39
401831.520,5755903.200,80.150,89,105,49
401831.610,5755903.240,80.120,106,117,52
401831.670,5755903.290,80.140,118,131,61
401831.760,5755903.330,80.120,114,125,57
401831.860,5755903.370,80.090,93,105,45
401831.910,5755903.420,80.120,71,89,32
401831.930,5755903.460,80.190,75,100,42
401832.120,5755903.550,80.150,87,113,47
401832.170,5755903.590,80.180,86,110,46
401832.230,5755903.640,80.200,89,113,51
401832.290,5755903.680,80.220,96,116,53
401832.340,5755903.720,80.250,108,123,61
401832.490,5755903.810,80.240,102,119,54
401832.590,5755903.850,80.210,95,108,52
401832.660,5755903.900,80.200,88,104,49
401832.710,5755903.940,80.230,87,103,48
401832.830,5755903.990,80.180,76,90,42
401830.520,5755902.370,79.840,84,100,39
401830.670,5755902.510,79.930,79,94,42
401830.740,5755902.550,79.940,85,99,44
401830.830,5755902.640,80.020,100,117,52
401831.120,5755902.820,80.040,89,117,41
401831.640,5755903.170,80.150,111,122,59
401831.690,5755903.210,80.160,123,131,67
401831.790,5755903.260,80.140,100,111,46
401831.890,5755903.300,80.100,67,83,28
401831.970,5755903.340,80.100,64,82,33
401831.990,5755903.390,80.170,71,94,40
401832.070,5755903.430,80.170,92,115,55
401832.130,5755903.470,80.180,92,117,54
401832.190,5755903.520,80.210,89,114,51
401832.240,5755903.560,80.240,85,109,47
401832.320,5755903.610,80.240,90,115,50
401832.540,5755903.730,80.230,113,126,62
401832.660,5755903.790,80.170,104,116,57
401832.690,5755903.830,80.210,92,106,48
401832.770,5755903.870,80.220,93,108,53
401833.140,5755904.130,80.310,119,129,78
401833.260,5755904.180,80.250,87,101,50
401833.320,5755904.220,80.280,64,83,38
401833.400,5755904.260,80.270,63,87,41
401833.470,5755904.300,80.280,61,91,44
401833.500,5755904.350,80.330,73,105,56
401830.880,5755902.570,80.010,98,114,54
401830.920,5755902.610,80.060,103,116,50
401831.070,5755902.700,80.070,83,109,30
401831.130,5755902.750,80.090,84,114,37
401831.540,5755903.010,80.130,69,91,32
401831.810,5755903.180,80.160,101,115,49
401831.910,5755903.220,80.130,74,91,34
401832.000,5755903.270,80.120,59,77,30
401832.020,5755903.310,80.180,60,84,36
401832.100,5755903.360,80.180,87,111,54
401832.130,5755903.400,80.240,92,117,56
401832.220,5755903.440,80.220,96,120,57
401832.280,5755903.490,80.240,91,114,52
401832.350,5755903.530,80.240,93,116,55
401832.450,5755903.580,80.220,100,121,54
401832.520,5755903.630,80.220,106,122,55
401832.630,5755903.670,80.180,117,128,62
401832.720,5755903.710,80.160,105,111,52
401832.750,5755903.750,80.200,83,95,40
401832.770,5755903.800,80.260,90,102,50
401833.180,5755904.060,80.320,114,122,72
401833.270,5755904.100,80.300,73,87,39
401833.390,5755904.140,80.250,51,73,32
401833.470,5755904.190,80.240,65,88,45
401833.500,5755904.230,80.290,75,103,55
401833.540,5755904.270,80.330,82,112,61
401831.600,5755902.930,80.130,74,96,37
401831.730,5755903.020,80.140,96,116,54
401831.780,5755903.060,80.170,118,130,64
401831.850,5755903.110,80.170,101,113,45
401831.930,5755903.150,80.170,77,94,32
401832.020,5755903.190,80.140,74,91,34
401832.060,5755903.240,80.190,70,93,37
401832.590,5755903.550,80.190,92,112,43
401832.670,5755903.590,80.190,104,118,54
401832.770,5755903.630,80.160,100,107,51
401832.810,5755903.680,80.190,82,96,42
401832.830,5755903.720,80.250,80,92,40
401833.220,5755903.980,80.320,100,113,61
401833.320,5755904.030,80.290,71,89,43
401833.420,5755904.070,80.260,58,81,39
401833.500,5755904.110,80.250,59,83,42
401833.530,5755904.150,80.310,61,87,46
401832.050,5755903.120,80.160,93,113,49
401832.090,5755903.160,80.200,89,110,44
401832.510,5755903.430,80.250,94,113,46
401832.600,5755903.480,80.230,87,107,42
401832.700,5755903.520,80.200,79,96,37
401832.790,5755903.560,80.180,81,93,42
401832.830,5755903.600,80.220,83,97,44
401833.330,5755903.950,80.320,86,104,55
401833.430,5755903.990,80.300,68,90,44
401833.530,5755904.040,80.270,61,86,40
401833.550,5755904.080,80.330,55,85,43
401832.880,5755903.530,80.220,66,77,34
401832.900,5755903.570,80.270,71,84,39
401833.370,5755903.880,80.330,100,116,63
401833.470,5755903.920,80.300,88,110,53
401833.570,5755903.960,80.270,88,110,52
401833.630,5755904.000,80.290,76,103,50
401833.660,5755904.050,80.340,63,91,44
401833.500,5755903.840,80.320,105,124,64
401833.660,5755903.930,80.300,85,108,51
401833.710,5755903.970,80.330,76,101,50
401833.770,5755904.020,80.350,66,95,46
401825.540,5755900.360,80.130,145,154,97
401825.610,5755900.390,80.080,141,151,98
401825.670,5755900.440,80.060,136,144,91
401825.730,5755900.480,80.020,122,132,77
401825.800,5755900.510,79.970,108,119,65
401825.870,5755900.540,79.910,105,114,59
401825.540,5755900.230,80.130,130,144,88
401825.600,5755900.250,80.060,136,145,90
401825.670,5755900.300,80.040,132,142,84
401825.730,5755900.360,80.030,117,129,71
401825.800,5755900.410,80.010,108,121,65
401825.860,5755900.460,79.990,106,120,70
401825.920,5755900.510,79.960,91,104,58
401825.990,5755900.580,79.980,98,110,63
401826.050,5755900.650,79.990,93,106,56
401825.600,5755900.140,80.090,120,133,80
401825.670,5755900.160,80.020,110,122,68
401825.730,5755900.230,80.020,103,115,61
401825.790,5755900.300,80.030,93,109,54
401825.860,5755900.350,80.010,99,112,58
401825.920,5755900.400,80.000,107,118,71
401825.990,5755900.460,79.980,105,115,71
401826.050,5755900.530,79.990,101,111,69
401826.110,5755900.640,80.060,87,98,54
401825.600,5755900.010,80.050,117,126,77
401825.670,5755900.050,80.010,116,128,78
401825.730,5755900.100,80.000,108,120,72
401825.790,5755900.170,80.010,98,113,61
401825.860,5755900.240,80.030,92,113,60
401825.920,5755900.300,80.020,98,120,71
401825.980,5755900.360,80.010,100,117,66
401826.050,5755900.420,80.000,107,119,69
401826.100,5755900.520,80.080,92,104,60
401826.350,5755900.750,80.040,119,130,76
401825.790,5755900.010,79.960,109,123,71
401825.860,5755900.090,79.980,101,116,62
401825.920,5755900.160,79.990,111,128,76
401825.980,5755900.220,79.990,121,141,92
401826.040,5755900.310,80.050,116,136,85
401826.110,5755900.370,80.040,112,129,78
401826.170,5755900.460,80.080,98,112,64
401826.730,5755900.960,79.980,152,161,101
401826.800,5755901.000,79.950,152,164,101
401826.860,5755901.050,79.920,142,159,90
401826.930,5755901.090,79.880,145,163,92
401826.040,5755900.170,80.010,123,142,88
401826.110,5755900.230,80.010,125,142,91
401826.170,5755900.300,80.030,119,133,82
401826.230,5755900.370,80.030,108,119,69
401826.470,5755900.640,80.060,115,138,84
401826.540,5755900.680,80.030,125,144,84
401826.600,5755900.730,80.020,125,143,76
401826.660,5755900.780,80.000,142,156,90
401826.730,5755900.820,79.950,159,165,109
401826.800,5755900.850,79.910,171,174,119
401826.870,5755900.900,79.870,173,179,119
401826.930,5755900.940,79.840,160,170,108
401827.000,5755900.990,79.820,141,154,93
401827.060,5755901.050,79.820,129,146,86
401827.120,5755901.120,79.830,137,155,97
401827.180,5755901.190,79.830,135,153,96
401827.240,5755901.250,79.840,119,140,80
401826.230,5755900.250,80.050,120,132,84
401826.290,5755900.320,80.050,115,126,74
401826.350,5755900.370,80.040,116,127,74
401826.420,5755900.430,80.030,121,135,82
401826.540,5755900.550,80.020,133,158,99
401826.600,5755900.590,79.980,131,152,91
401826.670,5755900.640,79.960,133,150,85
401826.730,5755900.670,79.920,155,164,103
401826.800,5755900.700,79.860,180,180,128
401826.870,5755900.750,79.840,178,176,125
401826.930,5755900.800,79.820,159,160,105
401826.990,5755900.870,79.820,138,146,90
401827.060,5755900.930,79.820,122,135,81
401827.120,5755900.990,79.810,129,144,89
401827.190,5755901.040,79.800,148,164,105
401827.240,5755901.100,79.790,148,166,105
401827.300,5755901.170,79.800,136,157,94
401827.370,5755901.250,79.820,138,151,86
401827.430,5755901.300,79.810,152,155,92
401827.490,5755901.360,79.800,153,150,93
401826.480,5755900.370,80.040,125,142,82
401826.600,5755900.460,79.980,150,169,105
401826.670,5755900.490,79.920,151,167,108
401826.730,5755900.530,79.890,140,151,97
401826.800,5755900.570,79.850,154,153,101
401826.870,5755900.600,79.800,167,161,108
401826.930,5755900.660,79.790,145,144,94
401827.000,5755900.730,79.800,115,121,73
401827.060,5755900.800,79.820,113,127,75
401827.120,5755900.860,79.800,132,146,92
401827.190,5755900.920,79.800,150,163,103
401827.250,5755900.980,79.810,166,178,112
401827.300,5755901.050,79.820,155,168,104
401827.360,5755901.120,79.830,138,155,90
401827.430,5755901.180,79.820,132,143,77
401827.490,5755901.250,79.830,151,149,85
401827.550,5755901.310,79.830,163,154,95
401827.620,5755901.370,79.820,179,166,107
401827.680,5755901.430,79.820,191,178,116
401827.750,5755901.470,79.770,183,177,113
401827.820,5755901.510,79.740,174,176,111
401827.890,5755901.550,79.700,172,176,113
401827.060,5755900.670,79.810,123,133,86
401827.120,5755900.740,79.830,142,155,98
401827.180,5755900.800,79.820,151,165,101
401827.250,5755900.860,79.820,159,169,103
401827.310,5755900.920,79.810,154,163,98
401827.360,5755900.990,79.830,141,149,86
401827.420,5755901.070,79.850,135,148,85
401827.490,5755901.100,79.810,145,157,91
401827.550,5755901.190,79.840,162,164,99
401827.610,5755901.250,79.840,173,168,108
401827.680,5755901.300,79.810,186,179,119
401827.740,5755901.360,79.810,182,177,114
401827.810,5755901.390,79.750,171,171,110
401827.880,5755901.440,79.730,165,164,106
401827.940,5755901.500,79.730,157,156,98
401828.010,5755901.560,79.710,137,141,84
401828.070,5755901.630,79.730,138,142,85
401827.250,5755900.740,79.820,143,153,85
401827.310,5755900.790,79.810,137,148,82
401827.370,5755900.850,79.810,123,136,74
401827.430,5755900.920,79.810,130,139,76
401827.490,5755900.990,79.830,145,153,91
401827.550,5755901.050,79.820,155,164,98
401827.740,5755901.260,79.850,176,184,120
401827.810,5755901.300,79.810,166,173,110
401827.880,5755901.330,79.760,162,164,105
401827.940,5755901.380,79.730,158,156,100
401828.000,5755901.450,79.760,136,138,82
401828.070,5755901.500,79.730,127,131,77
401828.130,5755901.570,79.730,142,146,90
401828.190,5755901.630,79.730,147,156,96
401828.250,5755901.710,79.770,133,146,80
401828.310,5755901.780,79.790,141,151,83
401827.490,5755900.850,79.790,129,142,80
401827.550,5755900.910,79.800,136,148,83
401827.620,5755900.980,79.800,150,163,94
401827.680,5755901.060,79.830,158,169,100
401827.740,5755901.130,79.850,172,182,117
401827.800,5755901.180,79.830,162,173,111
401827.870,5755901.220,79.790,144,154,95
401827.940,5755901.260,79.750,139,144,88
401828.000,5755901.320,79.740,141,141,83
401828.070,5755901.370,79.730,131,133,77
401828.130,5755901.450,79.750,132,134,78
401828.190,5755901.520,79.760,148,151,94
401828.250,5755901.590,79.780,143,154,94
401828.310,5755901.660,79.790,137,153,86
401828.370,5755901.730,79.810,141,153,82
401828.430,5755901.780,79.780,132,143,76
401828.500,5755901.810,79.730,115,128,63
401828.570,5755901.870,79.720,127,139,67
401828.630,5755901.930,79.720,139,150,81
401827.740,5755900.980,79.820,152,163,93
401827.800,5755901.050,79.820,161,170,109
401827.870,5755901.100,79.800,146,157,97
401827.930,5755901.150,79.770,143,151,93
401828.000,5755901.180,79.720,135,143,88
401828.070,5755901.240,79.710,122,133,74
401828.130,5755901.320,79.740,121,131,73
401828.190,5755901.390,79.760,120,129,70
401828.250,5755901.460,79.770,127,135,75
401828.320,5755901.520,79.780,140,152,90
401828.370,5755901.600,79.810,145,162,94
401828.430,5755901.670,79.810,147,160,90
401828.490,5755901.730,79.810,140,154,84
401828.560,5755901.760,79.750,127,142,70
401828.630,5755901.820,79.750,135,147,74
401828.690,5755901.880,79.740,147,160,92
401828.760,5755901.940,79.730,148,164,100
401828.820,5755902.010,79.740,135,159,104
401828.880,5755902.070,79.730,106,136,90
401828.130,5755901.180,79.720,141,153,94
401828.190,5755901.250,79.740,131,146,87
401828.250,5755901.330,79.770,116,132,71
401828.310,5755901.410,79.790,121,135,71
401828.370,5755901.470,79.800,142,155,89
401828.430,5755901.550,79.810,151,165,96
401828.490,5755901.620,79.810,153,164,95
401828.560,5755901.670,79.800,156,166,94
401828.620,5755901.720,79.780,142,154,75
401828.690,5755901.780,79.780,140,152,76
401828.750,5755901.840,79.760,160,174,104
401828.820,5755901.880,79.730,160,178,112
401828.880,5755901.950,79.740,145,168,110
401828.950,5755902.010,79.730,117,145,98
401829.010,5755902.090,79.750,87,117,69
401828.310,5755901.280,79.770,133,148,85
401828.370,5755901.360,79.800,133,150,86
401828.440,5755901.430,79.820,126,142,75
401828.490,5755901.490,79.820,133,146,78
401828.550,5755901.550,79.820,147,154,86
401828.620,5755901.610,79.800,155,160,87
401828.690,5755901.650,79.770,149,159,82
401828.750,5755901.710,79.760,150,161,87
401828.820,5755901.750,79.730,162,172,104
401828.880,5755901.810,79.720,152,167,106
401828.950,5755901.880,79.730,141,160,105
401829.010,5755901.950,79.730,117,143,94
401829.070,5755902.020,79.750,108,138,86
401829.130,5755902.100,79.780,119,150,88
401829.190,5755902.160,79.780,121,148,82
401828.490,5755901.370,79.830,122,140,76
401828.610,5755901.490,79.820,137,145,68
401828.680,5755901.540,79.800,149,155,82
401828.750,5755901.590,79.770,139,149,78
401828.810,5755901.640,79.760,142,151,81
401828.880,5755901.700,79.750,142,152,87
401828.940,5755901.770,79.750,130,144,86
401829.000,5755901.830,79.760,123,137,85
401829.070,5755901.900,79.760,122,142,91
401829.130,5755901.970,79.780,123,147,94
401829.190,5755902.040,79.790,119,144,88
401829.370,5755902.220,79.790,134,157,100
401829.440,5755902.280,79.770,140,158,109
401829.510,5755902.320,79.730,140,150,107
401829.570,5755902.370,79.720,129,134,92
401829.640,5755902.420,79.680,121,122,71
401829.710,5755902.480,79.680,122,127,74
401828.740,5755901.480,79.800,131,142,70
401828.810,5755901.540,79.800,130,146,75
401828.870,5755901.590,79.780,125,140,69
401828.940,5755901.640,79.760,119,134,67
401829.000,5755901.710,79.770,106,123,63
401829.060,5755901.790,79.790,91,107,53
401829.120,5755901.850,79.790,99,114,62
401829.190,5755901.910,79.790,115,132,81
401829.250,5755901.980,79.800,113,131,76
401829.310,5755902.050,79.800,118,136,74
401829.370,5755902.110,79.800,119,139,72
401829.500,5755902.220,79.770,144,156,99
401829.570,5755902.260,79.740,150,152,101
401829.630,5755902.310,79.720,139,142,89
401829.700,5755902.360,79.690,131,135,73
401829.770,5755902.410,79.670,129,136,77
401829.830,5755902.470,79.670,122,132,73
401829.900,5755902.540,79.670,123,131,65
401829.960,5755902.600,79.680,123,130,65
401829.000,5755901.600,79.790,121,140,71
401829.060,5755901.660,79.790,103,124,59
401829.120,5755901.720,79.790,85,106,46
401829.190,5755901.780,79.780,89,105,46
401829.250,5755901.850,79.790,117,130,70
401829.310,5755901.920,79.810,128,141,78
401829.430,5755902.040,79.790,117,135,63
401829.490,5755902.090,79.780,142,155,84
401829.560,5755902.150,79.760,160,164,98
401829.630,5755902.190,79.730,166,164,104
401829.700,5755902.240,79.700,165,166,101
401829.770,5755902.290,79.680,163,162,93
401829.840,5755902.340,79.660,157,156,96
401829.900,5755902.400,79.650,132,139,77
401829.960,5755902.480,79.680,125,133,63
401830.020,5755902.550,79.700,118,129,58
401830.080,5755902.620,79.710,124,135,64
401830.140,5755902.680,79.710,142,150,80
401829.310,5755901.790,79.790,134,143,71
401829.370,5755901.860,79.810,142,153,80
401829.430,5755901.920,79.810,143,157,86
401829.550,5755902.040,79.790,150,159,88
401829.620,5755902.090,79.780,160,163,98
401829.690,5755902.130,79.740,175,171,113
401829.760,5755902.190,79.720,171,166,107
401829.830,5755902.230,79.690,169,161,98
401829.900,5755902.270,79.640,163,157,100
401829.960,5755902.340,79.650,137,143,83
401830.030,5755902.400,79.660,124,133,65
401830.090,5755902.470,79.680,119,129,55
401830.140,5755902.560,79.730,126,135,61
401830.200,5755902.630,79.720,141,147,76
401830.260,5755902.700,79.750,136,146,80
401829.620,5755901.980,79.800,140,150,88
401829.680,5755902.030,79.790,151,153,95
401829.750,5755902.070,79.740,161,161,109
401829.820,5755902.120,79.710,155,156,104
401829.890,5755902.160,79.670,146,146,88
401829.960,5755902.210,79.650,152,149,90
401830.020,5755902.270,79.650,143,146,86
401830.080,5755902.350,79.670,130,137,73
401830.150,5755902.410,79.680,128,136,69
401830.210,5755902.490,79.710,130,138,65
401830.270,5755902.560,79.720,138,146,71
401830.330,5755902.620,79.710,137,147,76
401830.360,5755902.740,79.830,134,142,77
401830.410,5755902.830,79.890,132,142,77
401829.810,5755902.010,79.760,156,159,108
401829.890,5755902.040,79.700,149,155,101
401829.960,5755902.090,79.670,136,140,82
401830.030,5755902.140,79.630,132,134,73
401830.080,5755902.220,79.670,136,141,77
401830.150,5755902.280,79.670,129,135,72
401830.210,5755902.340,79.670,129,136,72
401830.270,5755902.410,79.670,130,137,67
401830.330,5755902.490,79.700,123,133,56
401830.390,5755902.570,79.730,114,125,48
401830.430,5755902.670,79.810,122,130,63
401830.480,5755902.760,79.860,138,144,79
401830.530,5755902.850,79.920,126,136,67
401830.280,5755902.260,79.630,127,134,69
401830.340,5755902.320,79.630,121,130,62
401830.410,5755902.390,79.640,109,123,46
401830.440,5755902.520,79.770,99,113,38
401830.480,5755902.620,79.840,116,124,60
401830.530,5755902.720,79.910,135,140,76
401830.580,5755902.800,79.960,124,133,60
401830.640,5755902.890,80.000,110,124,47
401830.450,5755902.360,79.710,110,124,45
401830.500,5755902.470,79.790,106,118,45
401830.540,5755902.580,79.880,105,114,47
401830.870,5755903.050,80.070,93,115,47
401830.500,5755902.350,79.790,106,118,44
401830.550,5755902.440,79.830,106,116,47
401830.600,5755902.530,79.900,109,117,53
401830.930,5755902.990,80.070,113,133,68
401831.000,5755903.040,80.040,111,129,66
401831.080,5755903.070,79.990,101,120,55
401831.150,5755903.130,79.970,100,122,53
401831.210,5755903.180,79.950,109,129,63
401830.610,5755902.400,79.880,104,113,51
401830.660,5755902.480,79.920,114,118,56
401830.990,5755902.940,80.090,109,129,57
401831.060,5755903.000,80.090,103,123,57
401831.140,5755903.010,79.990,103,124,59
401831.190,5755903.110,80.070,109,130,63
401831.260,5755903.150,80.020,108,126,61
401831.330,5755903.200,80.000,88,104,46
401831.380,5755903.290,80.050,67,81,32
401830.880,5755902.660,80.030,117,130,60
401830.960,5755902.680,79.950,105,122,50
401830.990,5755902.810,80.080,98,118,43
401831.060,5755902.870,80.080,104,123,49
401831.120,5755902.930,80.080,111,132,60
401831.200,5755902.950,80.000,118,140,69
401831.250,5755903.040,80.060,119,137,68
401831.330,5755903.060,79.970,108,122,60
401831.400,5755903.120,79.970,81,98,45
401831.440,5755903.230,80.050,77,93,44
401831.490,5755903.320,80.100,93,107,52
401830.940,5755902.600,80.030,108,119,48
401831.010,5755902.640,79.990,104,122,45
401831.050,5755902.750,80.080,105,126,45
401831.110,5755902.810,80.090,113,128,54
401831.190,5755902.850,80.050,119,139,66
401831.250,5755902.910,80.040,126,148,74
401831.320,5755902.960,80.030,121,135,64
401831.390,5755903.020,80.010,97,110,51
401831.450,5755903.080,80.010,88,103,50
401831.500,5755903.170,80.060,114,124,70
401831.550,5755903.240,80.080,127,136,75
401831.610,5755903.300,80.070,140,146,79
401831.680,5755903.350,80.040,141,148,72
401831.750,5755903.390,80.010,131,143,62
401831.050,5755902.620,80.080,106,124,46
401831.250,5755902.790,80.050,113,132,57
401831.310,5755902.850,80.050,118,138,66
401831.380,5755902.900,80.030,103,119,51
401831.440,5755902.960,80.020,97,107,48
401831.510,5755903.020,80.030,116,123,69
401831.560,5755903.110,80.060,131,135,80
401831.620,5755903.170,80.060,142,145,83
401831.690,5755903.210,80.010,143,146,76
401831.760,5755903.240,79.960,133,140,65
401831.830,5755903.290,79.920,123,136,61
401831.450,5755902.830,80.000,109,123,57
401831.500,5755902.910,80.060,101,113,48
401831.550,5755902.990,80.080,117,126,65
401831.600,5755903.070,80.120,133,139,78
401831.680,5755903.120,80.090,145,147,81
401831.740,5755903.160,80.060,131,138,64
401831.810,5755903.210,80.010,110,125,47
401831.890,5755903.230,79.930,101,113,43
401831.610,5755902.940,80.110,120,132,68
401831.730,5755903.080,80.140,134,142,71
401831.790,5755903.110,80.080,124,137,61
401831.870,5755903.150,80.030,105,122,45
401831.940,5755903.200,80.010,84,98,30
401831.900,5755903.140,80.140,94,114,42
401831.980,5755903.170,80.060,74,92,29
401832.380,5755903.680,80.240,126,138,70
401832.440,5755903.730,80.220,126,136,68
401832.510,5755903.790,80.210,120,129,59
401832.570,5755903.860,80.220,104,119,53
401832.110,5755903.170,80.070,94,109,40
401832.460,5755903.580,80.150,121,133,61
401832.520,5755903.640,80.160,137,139,72
401832.580,5755903.710,80.170,120,128,56
401832.630,5755903.780,80.190,102,118,51
401832.700,5755903.840,80.160,109,125,64
401832.740,5755903.930,80.230,116,131,73
401832.070,5755903.120,80.210,104,122,52
401832.130,5755903.180,80.200,95,113,41
401832.200,5755903.240,80.190,104,122,42
401832.390,5755903.420,80.180,105,123,52
401832.440,5755903.500,80.230,112,125,54
401832.520,5755903.530,80.160,112,121,51
401832.790,5755903.720,80.050,121,131,70
401832.810,5755903.860,80.200,128,134,78
401832.840,5755903.970,80.300,116,124,70
401832.820,5755903.710,80.150,111,120,56
401832.880,5755903.780,80.160,122,127,68
401832.920,5755903.870,80.240,124,128,73
401832.980,5755903.940,80.260,135,135,78
401833.020,5755904.040,80.320,150,145,86
401833.080,5755904.100,80.330,132,138,73
401832.930,5755903.730,80.190,118,124,66
401832.980,5755903.820,80.260,128,131,76
401833.040,5755903.880,80.250,132,132,75
401849.740,5755912.350,80.410,22,54,34
401849.690,5755912.270,80.360,26,58,36
401849.620,5755912.220,80.380,30,62,39
401849.560,5755912.170,80.410,31,63,39
401849.510,5755912.090,80.360,30,62,37
401849.430,5755912.050,80.410,33,66,40
401849.380,5755911.990,80.400,39,73,47
401849.330,5755911.910,80.360,47,84,55
401849.630,5755912.340,80.380,22,53,33
401849.560,5755912.280,80.390,29,62,38
401849.500,5755912.230,80.400,31,64,38
401849.460,5755912.140,80.340,31,64,38
401849.390,5755912.090,80.360,26,58,35
401849.320,5755912.040,80.380,33,66,41
401849.270,5755911.970,80.360,33,66,42
401849.210,5755911.910,80.340,38,70,45
401849.150,5755911.860,80.360,38,70,43
401848.770,5755911.520,80.420,30,59,40
401848.710,5755911.470,80.440,27,56,38
401848.660,5755911.400,80.410,23,52,34
401848.590,5755911.340,80.420,31,59,41
401849.400,5755912.210,80.340,37,71,43
401849.330,5755912.150,80.360,25,57,34
401849.270,5755912.100,80.370,27,59,35
401849.210,5755912.030,80.350,25,57,33
401849.150,5755911.970,80.350,35,67,40
401849.090,5755911.920,80.360,31,63,37
401849.030,5755911.850,80.350,32,64,37
401848.960,5755911.800,80.370,43,77,47
401848.890,5755911.760,80.410,43,77,45
401848.830,5755911.720,80.460,44,79,46
401848.780,5755911.640,80.420,39,72,44
401848.730,5755911.560,80.370,32,64,42
401848.690,5755911.470,80.300,27,57,38
401848.620,5755911.420,80.320,26,55,37
401848.530,5755911.400,80.420,32,62,43
401848.500,5755911.310,80.340,31,60,42
401849.160,5755912.080,80.320,26,56,32
401849.090,5755912.030,80.350,33,65,39
401849.030,5755911.970,80.350,32,64,38
401848.970,5755911.920,80.360,41,73,45
401848.900,5755911.870,80.390,43,78,49
401848.830,5755911.820,80.420,34,69,39
401848.710,5755911.710,80.440,44,80,48
401848.660,5755911.630,80.400,35,67,43
401848.630,5755911.530,80.300,20,50,31
401848.420,5755911.390,80.390,31,61,42
401848.310,5755911.260,80.360,34,62,45
401848.250,5755911.190,80.340,25,51,35
401848.920,5755911.960,80.320,30,60,37
401848.850,5755911.910,80.350,38,71,44
401848.770,5755911.880,80.410,34,68,39
401848.590,5755911.710,80.430,35,68,41
401848.530,5755911.650,80.420,24,55,33
401848.360,5755911.450,80.380,27,57,40
401848.250,5755911.320,80.360,28,56,42
401848.190,5755911.240,80.340,20,45,32
401848.530,5755911.760,80.430,38,71,42
401848.480,5755911.690,80.410,29,61,38
401848.300,5755911.510,80.400,25,55,39
401848.180,5755911.380,80.380,24,52,37
401848.130,5755911.310,80.360,18,43,30
401847.560,5755910.820,80.470,35,69,43
401848.420,5755911.750,80.400,32,63,41
401848.360,5755911.690,80.400,31,63,42
401848.300,5755911.630,80.410,30,61,41
401848.240,5755911.570,80.390,28,59,40
401848.180,5755911.510,80.410,24,52,36
401848.120,5755911.440,80.380,20,48,33
401848.070,5755911.370,80.350,16,40,27
401847.640,5755910.970,80.390,27,58,36
401847.450,5755910.810,80.440,35,68,43
401848.190,5755911.620,80.380,35,66,43
401848.120,5755911.570,80.390,24,52,35
401848.060,5755911.500,80.380,22,50,34
401848.010,5755911.430,80.350,26,53,38
401847.580,5755911.040,80.420,27,57,34
401847.020,5755910.540,80.470,27,60,35
401847.950,5755911.500,80.360,29,58,40
401847.890,5755911.430,80.350,23,52,35
401847.810,5755911.410,80.440,28,57,39
401847.650,5755911.210,80.380,28,58,36
401847.590,5755911.150,80.380,34,67,39
401847.520,5755911.110,80.410,32,64,38
401847.440,5755911.070,80.470,26,58,35
401847.600,5755911.240,80.330,32,63,39
401847.450,5755911.170,80.430,27,59,35
401847.380,5755911.130,80.470,29,61,38
401847.080,5755910.830,80.460,27,60,35
401847.400,5755911.220,80.400,33,67,42
401847.330,5755911.180,80.440,30,63,38
401847.270,5755911.120,80.440,26,59,35
401847.210,5755911.050,80.430,29,62,37
401847.150,5755911.000,80.440,30,63,39
401847.160,5755911.100,80.410,35,70,43
401847.090,5755911.060,80.450,32,64,40
401847.030,5755911.010,80.460,23,54,32
401846.910,5755910.890,80.460,31,60,37
401846.720,5755910.710,80.460,25,56,34
401846.380,5755910.330,80.400,32,67,32
401846.270,5755910.190,80.360,73,114,48
401846.920,5755910.990,80.420,30,60,37
401846.850,5755910.950,80.450,36,65,41
401846.780,5755910.890,80.460,29,59,35
401846.720,5755910.830,80.460,22,54,32
401846.670,5755910.760,80.430,24,56,33
401846.620,5755910.710,80.440,22,54,31
401846.560,5755910.640,80.430,19,50,27
401846.500,5755910.580,80.430,24,55,31
401846.440,5755910.520,80.420,31,64,37
401846.270,5755910.320,80.390,46,83,38
401846.210,5755910.240,80.360,64,102,48
401846.160,5755910.170,80.320,72,113,50
401846.100,5755910.090,80.280,76,116,46
401846.040,5755910.050,80.320,69,108,39
401846.600,5755910.840,80.470,30,63,38
401846.500,5755910.700,80.430,32,65,39
401846.450,5755910.620,80.380,30,62,37
401846.380,5755910.580,80.420,26,59,34
401846.270,5755910.430,80.350,45,83,39
401846.210,5755910.370,80.370,55,93,43
401846.160,5755910.300,80.330,54,90,42
401846.100,5755910.220,80.300,64,103,43
401846.040,5755910.150,80.290,70,108,44
401845.980,5755910.090,80.280,72,109,46
401845.920,5755910.030,80.270,68,107,43
401845.860,5755909.970,80.280,62,103,37
401846.450,5755910.750,80.400,31,62,38
401846.390,5755910.680,80.380,27,59,34
401846.330,5755910.620,80.380,24,57,31
401846.260,5755910.570,80.410,33,68,35
401846.200,5755910.510,80.400,40,78,35
401846.150,5755910.420,80.350,54,94,43
401846.100,5755910.340,80.330,64,102,43
401846.050,5755910.260,80.280,63,102,40
401845.990,5755910.200,80.280,65,105,43
401845.920,5755910.150,80.290,71,110,50
401845.870,5755910.080,80.270,72,112,52
401845.810,5755910.000,80.240,62,103,40
401845.750,5755909.960,80.270,61,102,39
401845.690,5755909.900,80.260,63,105,42
401845.620,5755909.860,80.320,79,119,51
401846.330,5755910.720,80.370,23,54,32
401846.270,5755910.670,80.380,29,62,34
401846.210,5755910.610,80.370,32,67,33
401846.150,5755910.550,80.370,32,69,28
401846.090,5755910.490,80.370,46,84,34
401846.040,5755910.410,80.340,67,107,46
401845.980,5755910.350,80.330,58,97,39
401845.920,5755910.270,80.290,60,99,39
401845.860,5755910.210,80.290,55,95,38
401845.800,5755910.140,80.280,64,104,44
401845.740,5755910.080,80.270,65,105,44
401845.690,5755910.040,80.310,73,111,49
401845.630,5755909.980,80.300,66,105,47
401845.560,5755909.920,80.310,74,114,54
401845.440,5755909.790,80.290,83,123,54
401846.100,5755910.590,80.340,44,81,34
401846.040,5755910.540,80.340,53,92,39
401845.970,5755910.480,80.360,62,102,44
401845.920,5755910.410,80.330,62,101,40
401845.860,5755910.340,80.320,64,103,41
401845.800,5755910.270,80.300,62,100,41
401845.740,5755910.210,80.280,70,110,47
401845.690,5755910.130,80.260,73,113,52
401845.630,5755910.070,80.240,77,117,55
401845.570,5755910.040,80.300,63,104,43
401845.200,5755909.680,80.290,71,113,45
401845.860,5755910.460,80.300,68,108,43
401845.790,5755910.420,80.340,68,103,43
401845.750,5755910.310,80.260,63,100,39
401845.680,5755910.270,80.290,62,102,40
401845.620,5755910.200,80.270,64,105,45
401845.570,5755910.130,80.250,66,107,45
401845.510,5755910.080,80.260,69,110,45
401845.450,5755910.030,80.290,71,111,46
401845.380,5755909.980,80.300,76,115,49
401844.900,5755909.480,80.270,76,111,56
401845.680,5755910.400,80.310,79,116,51
401845.620,5755910.330,80.280,67,105,43
401845.570,5755910.260,80.260,68,108,45
401845.510,5755910.190,80.240,65,105,42
401845.460,5755910.130,80.250,75,115,48
401845.390,5755910.080,80.260,75,116,45
401845.320,5755910.040,80.310,76,116,48
401845.270,5755909.970,80.280,65,105,41
401845.080,5755909.810,80.310,75,116,50
401844.840,5755909.540,80.260,80,120,58
401844.790,5755909.460,80.230,70,108,49
401844.730,5755909.400,80.210,72,109,53
401845.450,5755910.260,80.260,71,113,44
401845.400,5755910.200,80.260,80,120,50
401845.330,5755910.150,80.280,75,114,46
401845.270,5755910.100,80.300,68,109,49
401845.210,5755910.030,80.290,62,103,42
401845.140,5755909.980,80.310,67,107,44
401845.020,5755909.870,80.310,72,111,49
401844.840,5755909.660,80.270,65,105,47
401844.790,5755909.590,80.250,73,117,52
401844.730,5755909.530,80.240,82,125,61
401844.670,5755909.450,80.210,83,123,61
401844.610,5755909.410,80.240,78,117,56
401844.550,5755909.350,80.240,77,117,52
401845.210,5755910.150,80.280,71,114,54
401845.150,5755910.090,80.270,66,107,44
401845.080,5755910.040,80.300,67,108,45
401845.020,5755909.990,80.310,71,111,51
401844.960,5755909.920,80.290,67,105,49
401844.900,5755909.860,80.290,64,103,49
401844.780,5755909.730,80.270,64,104,47
401844.730,5755909.650,80.240,76,118,52
401844.660,5755909.600,80.260,77,120,57
401844.610,5755909.520,80.210,78,119,56
401844.560,5755909.470,80.230,81,122,57
401844.490,5755909.410,80.240,82,123,57
401844.430,5755909.360,80.250,78,118,52
401844.370,5755909.290,80.240,77,117,52
401844.310,5755909.210,80.200,71,114,50
401844.970,5755910.040,80.290,65,104,49
401844.900,5755909.990,80.310,70,110,54
401844.850,5755909.910,80.260,68,108,49
401844.780,5755909.860,80.290,60,100,42
401844.720,5755909.790,80.290,76,115,54
401844.600,5755909.670,80.270,74,114,54
401844.540,5755909.610,80.270,79,118,58
401844.490,5755909.530,80.240,78,119,55
401844.380,5755909.400,80.210,74,113,49
401844.320,5755909.340,80.210,75,116,51
401844.260,5755909.270,80.190,79,121,59
401844.190,5755909.220,80.210,76,118,51
401844.130,5755909.160,80.210,80,123,55
401844.070,5755909.090,80.180,85,128,58
401844.730,5755909.910,80.260,70,109,49
401844.670,5755909.840,80.260,87,124,61
401844.320,5755909.450,80.190,69,108,51
401844.260,5755909.390,80.200,72,113,51
401844.200,5755909.320,80.180,72,114,50
401844.140,5755909.260,80.170,74,115,50
401844.070,5755909.210,80.190,72,115,48
401843.950,5755909.090,80.180,86,127,54
401843.890,5755909.030,80.180,75,115,51
401844.260,5755909.520,80.210,72,110,53
401844.200,5755909.450,80.200,70,111,52
401844.140,5755909.390,80.190,72,113,48
401844.090,5755909.290,80.110,72,113,50
401843.950,5755909.230,80.220,74,112,44
401843.910,5755909.090,80.090,73,114,48
401843.840,5755909.060,80.150,71,113,49
401843.780,5755908.990,80.140,76,117,53
401843.720,5755908.930,80.130,86,127,60
401843.650,5755908.870,80.130,81,122,60
401844.190,5755909.600,80.260,79,118,60
401844.130,5755909.530,80.250,70,111,52
401844.080,5755909.420,80.150,77,119,54
401844.020,5755909.370,80.160,78,118,55
401843.960,5755909.320,80.180,71,111,46
401843.890,5755909.260,80.190,72,110,45
401843.840,5755909.190,80.160,70,109,45
401843.780,5755909.130,80.160,81,123,56
401843.710,5755909.070,80.180,78,120,50
401843.660,5755908.980,80.120,87,129,59
401843.590,5755908.940,80.150,78,120,56
401843.540,5755908.880,80.160,62,101,43
401843.480,5755908.810,80.130,56,98,39
401844.020,5755909.480,80.140,73,113,54
401843.960,5755909.440,80.180,79,119,57
401843.900,5755909.380,80.180,73,113,51
401843.840,5755909.290,80.130,72,111,50
401843.780,5755909.220,80.100,70,110,46
401843.720,5755909.180,80.140,80,122,52
401843.660,5755909.120,80.160,85,127,57
401843.600,5755909.050,80.140,87,128,60
401843.530,5755909.000,80.150,79,120,57
401843.480,5755908.940,80.140,80,120,56
401843.420,5755908.870,80.130,66,107,41
401843.360,5755908.800,80.110,78,119,53
401843.310,5755908.720,80.070,75,118,56
401843.900,5755909.500,80.180,77,117,54
401843.840,5755909.440,80.170,81,123,58
401843.780,5755909.360,80.130,79,122,56
401843.730,5755909.270,80.080,76,120,51
401843.660,5755909.220,80.100,76,120,49
401843.590,5755909.200,80.180,74,116,50
401843.540,5755909.110,80.130,77,119,55
401843.480,5755909.040,80.110,71,113,54
401843.420,5755908.980,80.100,78,121,58
401843.360,5755908.950,80.160,69,111,43
401843.310,5755908.850,80.080,69,110,48
401843.250,5755908.770,80.060,65,104,49
401843.660,5755909.360,80.130,76,121,56
401843.600,5755909.300,80.130,74,117,51
401843.540,5755909.240,80.130,80,121,52
401843.480,5755909.170,80.130,78,118,56
401843.420,5755909.090,80.090,74,115,55
401843.360,5755909.040,80.100,74,117,54
401843.300,5755908.990,80.130,66,108,43
401843.240,5755908.920,80.100,73,113,50
401843.190,5755908.830,80.040,76,115,53
401843.130,5755908.760,80.030,68,109,47
401843.480,5755909.300,80.130,76,118,49
401843.420,5755909.230,80.120,77,117,57
401843.360,5755909.160,80.110,81,120,59
401843.300,5755909.100,80.110,75,117,53
401843.240,5755909.050,80.120,73,115,49
401843.190,5755908.970,80.080,74,114,53
401843.130,5755908.890,80.050,64,104,48
401843.070,5755908.820,80.020,62,103,45
401843.300,5755909.220,80.100,78,119,56
401843.240,5755909.150,80.070,79,119,55
401843.180,5755909.110,80.110,82,122,56
401843.130,5755909.030,80.080,72,113,54
401843.070,5755908.950,80.030,70,110,53
401843.010,5755908.870,80.010,77,117,58
401842.950,5755908.810,80.000,79,122,54
401843.070,5755909.090,80.070,73,114,51
401843.010,5755909.010,80.040,82,123,58
401842.950,5755908.930,80.000,85,125,61
401842.890,5755908.870,80.000,78,118,51
401842.830,5755908.790,79.970,59,99,41
401842.770,5755908.730,79.960,53,93,40
401842.710,5755908.660,79.950,78,118,56
401842.650,5755908.590,79.920,69,109,46
401842.590,5755908.540,79.950,54,94,38
401842.890,5755909.000,80.030,71,113,49
401842.830,5755908.940,80.020,78,120,55
401842.770,5755908.870,80.000,62,102,41
401842.710,5755908.800,79.990,54,93,37
401842.650,5755908.740,79.980,66,105,46
401842.580,5755908.700,80.010,59,97,40
401842.710,5755908.920,79.980,62,102,42
401842.650,5755908.860,79.970,63,97,43
401842.580,5755908.810,80.000,67,103,45
401842.520,5755908.760,80.010,68,106,48
401842.460,5755908.800,79.970,69,110,46
401836.380,5755905.290,79.500,90,129,59
401836.320,5755905.250,79.520,94,137,63
401836.260,5755905.220,79.570,101,146,71
401838.290,5755906.410,77.810,46,56,57
401838.170,5755906.310,77.860,50,59,60
401838.100,5755906.200,77.780,51,60,60
401838.030,5755906.140,77.800,52,61,59
401837.970,5755906.120,77.870,55,62,60
401836.930,5755905.570,78.750,111,148,74
401835.820,5755905.060,79.910,106,145,75
401835.760,5755905.020,79.930,99,139,74
401835.700,5755904.960,79.930,89,130,70
401835.640,5755904.930,79.980,72,112,59
401835.580,5755904.890,80.010,50,92,42
401835.530,5755904.850,80.040,53,94,47
401835.470,5755904.810,80.070,45,85,41
401838.290,5755906.560,77.840,47,57,58
401838.220,5755906.480,77.830,47,57,58
401838.170,5755906.420,77.840,46,56,57
401838.100,5755906.350,77.830,48,58,59
401838.030,5755906.250,77.760,50,59,59
401837.960,5755906.200,77.780,52,60,59
401837.900,5755906.130,77.770,56,63,60
401837.710,5755906.030,77.940,67,73,62
401837.640,5755905.960,77.920,72,76,63
401837.580,5755905.900,77.930,77,80,65
401837.030,5755905.620,78.440,91,129,50
401836.980,5755905.640,78.570,106,141,63
401836.920,5755905.620,78.640,101,138,59
401836.820,5755905.640,78.860,113,146,78
401835.980,5755905.290,79.780,105,142,84
401835.760,5755905.130,79.910,111,147,82
401835.700,5755905.090,79.940,97,135,76
401835.640,5755905.020,79.940,85,127,71
401835.580,5755904.970,79.960,65,103,51
401835.520,5755904.930,79.980,48,85,40
401835.460,5755904.890,80.010,52,87,46
401835.400,5755904.850,80.030,37,70,36
401835.350,5755904.830,80.110,45,84,41
401838.290,5755906.690,77.850,50,60,61
401838.230,5755906.630,77.850,48,58,59
401838.160,5755906.580,77.880,48,58,59
401838.100,5755906.500,77.860,48,58,59
401838.040,5755906.420,77.820,47,56,58
401837.970,5755906.330,77.790,48,57,57
401837.900,5755906.250,77.750,52,60,58
401837.830,5755906.200,77.780,58,65,61
401837.770,5755906.160,77.830,62,69,63
401837.640,5755906.080,77.920,68,74,63
401837.580,5755906.010,77.900,67,73,61
401837.510,5755905.950,77.910,71,74,62
401837.440,5755905.870,77.890,74,77,63
401837.380,5755905.820,77.910,76,78,62
401837.320,5755905.760,77.930,86,86,56
401837.260,5755905.710,77.940,105,98,50
401837.200,5755905.680,78.010,125,113,60
401837.140,5755905.680,78.100,129,125,68
401837.080,5755905.690,78.230,102,120,47
401837.020,5755905.650,78.280,87,121,38
401836.090,5755905.450,79.650,105,141,77
401835.700,5755905.190,79.900,107,146,82
401835.640,5755905.140,79.930,97,134,75
401835.570,5755905.070,79.920,89,130,74
401835.510,5755905.030,79.940,84,121,67
401835.460,5755904.980,79.960,72,108,63
401835.400,5755904.930,79.990,64,98,53
401835.340,5755904.900,80.020,38,71,34
401835.280,5755904.860,80.050,39,76,41
401835.230,5755904.830,80.090,63,104,58
401835.170,5755904.800,80.140,75,116,64
401835.120,5755904.760,80.180,72,109,62
401837.900,5755906.370,77.730,49,58,58
401837.830,5755906.320,77.760,53,61,60
401837.770,5755906.270,77.790,58,65,61
401837.710,5755906.230,77.840,63,69,62
401837.650,5755906.220,77.920,69,75,65
401837.580,5755906.140,77.900,67,74,62
401837.510,5755906.060,77.870,65,71,59
401837.440,5755906.010,77.890,67,71,59
401837.380,5755905.920,77.870,69,72,60
401837.310,5755905.870,77.890,71,75,59
401837.260,5755905.820,77.910,84,84,58
401837.200,5755905.790,77.970,125,118,80
401837.130,5755905.770,78.040,163,151,106
401837.080,5755905.760,78.140,143,140,84
401837.020,5755905.760,78.240,107,126,53
401836.960,5755905.720,78.290,88,121,39
401836.030,5755905.540,79.690,110,151,92
401835.970,5755905.470,79.670,95,136,76
401835.520,5755905.180,79.980,95,137,82
401835.460,5755905.100,79.960,91,129,73
401835.390,5755905.030,79.940,68,106,55
401835.330,5755904.970,79.940,65,106,51
401835.270,5755904.930,79.980,62,103,48
401835.220,5755904.900,80.030,64,100,54
401835.160,5755904.870,80.070,61,98,52
401835.110,5755904.850,80.120,59,100,50
401835.060,5755904.830,80.190,55,94,47
401835.000,5755904.780,80.210,60,102,52
401834.940,5755904.700,80.170,72,115,60
401837.830,5755906.430,77.730,50,59,59
401837.770,5755906.380,77.760,53,62,59
401837.710,5755906.340,77.800,59,65,60
401837.640,5755906.310,77.850,62,67,61
401837.580,5755906.270,77.910,66,72,62
401837.510,5755906.210,77.900,69,75,62
401837.440,5755906.120,77.860,67,72,60
401837.380,5755906.070,77.890,65,69,59
401837.310,5755906.010,77.890,66,69,60
401837.250,5755905.960,77.920,69,73,60
401837.200,5755905.910,77.960,86,88,68
401837.130,5755905.870,77.990,136,134,109
401837.070,5755905.850,78.060,160,153,118
401837.010,5755905.830,78.150,137,137,86
401836.960,5755905.820,78.240,100,117,49
401836.890,5755905.760,78.240,89,120,39
401836.860,5755905.890,78.560,90,126,42
401835.910,5755905.550,79.710,92,136,80
401835.340,5755905.110,79.970,84,124,66
401835.270,5755905.030,79.950,80,120,63
401835.210,5755905.000,79.980,90,131,70
401835.160,5755904.960,80.020,90,126,67
401835.100,5755904.930,80.070,57,90,39
401835.050,5755904.910,80.120,60,97,44
401834.990,5755904.870,80.150,70,107,53
401834.930,5755904.810,80.160,70,110,55
401834.880,5755904.750,80.160,64,104,49
401834.820,5755904.700,80.160,69,111,53
401834.660,5755904.600,80.290,83,118,61
401834.430,5755904.420,80.370,95,133,73
401834.300,5755904.270,80.330,93,128,72
401834.230,5755904.200,80.320,88,122,66
401837.640,5755906.410,77.800,62,67,62
401837.580,5755906.380,77.860,69,73,64
401837.510,5755906.330,77.880,72,75,64
401837.450,5755906.260,77.880,76,79,64
401837.380,5755906.210,77.900,72,75,60
401837.320,5755906.150,77.900,65,69,60
401837.250,5755906.090,77.910,65,68,61
401837.190,5755906.060,77.970,66,70,62
401837.120,5755905.980,77.970,76,80,67
401837.070,5755905.950,78.020,106,109,86
401837.010,5755905.950,78.110,119,122,88
401836.960,5755905.930,78.200,122,122,81
401836.900,5755905.910,78.270,100,108,56
401836.830,5755905.830,78.250,89,111,46
401835.210,5755905.070,79.930,95,135,75
401835.150,5755905.050,79.990,95,134,76
401835.100,5755905.030,80.040,97,135,77
401835.050,5755905.000,80.090,91,130,70
401834.990,5755904.970,80.140,88,127,62
401834.940,5755904.930,80.160,82,118,60
401834.880,5755904.870,80.170,71,108,55
401834.820,5755904.810,80.170,66,104,53
401834.770,5755904.770,80.200,77,118,62
401834.710,5755904.720,80.210,90,130,69
401834.650,5755904.680,80.240,79,115,60
401834.600,5755904.670,80.310,90,127,71
401834.360,5755904.450,80.340,91,132,70
401834.300,5755904.390,80.330,93,130,72
401834.230,5755904.300,80.300,83,120,62
401834.170,5755904.220,80.280,78,118,58
401834.110,5755904.190,80.320,89,129,71
401834.070,5755904.140,80.340,98,135,76
401834.010,5755904.090,80.350,92,129,73
401837.250,5755906.220,77.920,69,72,60
401837.190,5755906.170,77.940,66,69,60
401837.120,5755906.120,77.960,65,68,59
401837.060,5755906.060,77.980,70,75,61
401837.010,5755906.030,78.030,90,94,69
401836.960,5755906.050,78.180,105,109,74
401836.890,5755906.020,78.230,113,115,78
401836.830,5755905.980,78.270,100,109,63
401836.770,5755905.910,78.280,84,106,48
401835.100,5755905.150,80.040,88,125,69
401835.040,5755905.100,80.060,82,120,67
401834.990,5755905.070,80.110,88,128,73
401834.940,5755905.040,80.150,94,136,79
401834.880,5755905.000,80.180,100,140,85
401834.820,5755904.950,80.200,83,123,68
401834.760,5755904.900,80.200,83,123,65
401834.710,5755904.840,80.220,85,127,69
401834.650,5755904.790,80.220,94,136,74
