//X,Y,Z,R,G,B
401873.030,5755910.200,79.590,79,127,69
401873.010,5755910.170,79.640,77,123,64
401872.960,5755910.110,79.660,66,110,54
401872.910,5755910.050,79.680,40,78,37
401872.870,5755910.000,79.700,28,69,31
401872.990,5755910.270,79.620,66,111,57
401872.940,5755910.220,79.630,77,121,64
401872.890,5755910.160,79.640,82,120,61
401872.840,5755910.100,79.670,56,98,49
401872.800,5755910.040,79.680,49,96,50
401872.960,5755910.350,79.670,59,97,44
401872.860,5755910.270,79.610,62,99,50
401872.820,5755910.210,79.630,73,113,57
401872.770,5755910.160,79.650,83,132,70
401872.720,5755910.100,79.670,73,122,63
401872.690,5755910.050,79.700,85,130,65
401872.800,5755910.330,79.610,73,110,55
401872.760,5755910.280,79.640,79,122,63
401872.730,5755910.230,79.700,103,151,80
401872.690,5755910.180,79.720,96,141,72
401872.650,5755910.120,79.740,79,120,61
401872.730,5755910.390,79.610,84,122,64
401872.710,5755910.350,79.670,77,118,61
401872.690,5755910.300,79.720,90,137,70
401872.670,5755910.420,79.710,69,112,57
401872.140,5755910.350,79.710,73,116,55
401872.180,5755910.520,79.690,75,117,58
401872.100,5755910.450,79.660,67,112,54
401872.070,5755910.400,79.710,67,112,58
401872.040,5755910.510,79.660,89,130,75
401872.000,5755910.460,79.700,77,120,66
401871.990,5755910.580,79.680,91,129,75
401872.060,5755910.800,79.620,114,148,88
401871.930,5755910.660,79.590,92,128,73
401871.850,5755910.590,79.570,86,120,66
401871.840,5755910.550,79.650,97,130,79
401871.810,5755910.510,79.690,93,132,80
401871.950,5755910.840,79.560,112,147,85
401871.840,5755910.710,79.570,93,128,69
401871.770,5755910.640,79.540,80,112,60
401871.710,5755910.580,79.540,88,122,72
401871.690,5755910.540,79.610,93,130,72
401871.900,5755910.900,79.570,113,146,83
401871.830,5755910.840,79.570,110,145,81
401871.780,5755910.770,79.560,102,139,76
401871.620,5755910.660,79.410,85,123,69
401871.590,5755910.610,79.450,96,132,80
401871.630,5755910.600,79.600,94,129,73
401871.600,5755910.550,79.660,95,132,73
401871.820,5755910.960,79.550,104,137,74
401871.780,5755910.900,79.580,114,148,81
401871.750,5755910.850,79.610,110,145,80
401871.570,5755910.730,79.440,93,129,69
401871.530,5755910.670,79.460,100,136,75
401871.600,5755910.670,79.650,97,131,75
401871.720,5755910.960,79.590,112,146,81
401871.700,5755910.910,79.630,116,146,82
401871.550,5755910.810,79.490,106,132,72
401871.520,5755910.760,79.540,98,128,66
401871.670,5755911.030,79.610,109,142,79
401871.630,5755910.980,79.630,114,142,81
401871.570,5755910.910,79.630,117,141,83
401871.500,5755910.840,79.610,106,130,73
401871.410,5755910.760,79.560,106,131,72
401871.330,5755910.690,79.540,114,134,81
401871.540,5755911.020,79.600,117,142,79
401871.500,5755910.970,79.620,127,148,86
401871.430,5755910.900,79.600,120,140,75
401871.340,5755910.820,79.560,104,126,61
401871.270,5755910.750,79.530,117,134,73
401871.460,5755911.080,79.570,122,147,79
401871.430,5755911.020,79.600,121,144,81
401871.370,5755910.960,79.600,119,141,75
401871.290,5755910.880,79.570,121,142,77
401871.200,5755910.810,79.530,130,149,84
401871.400,5755911.140,79.580,139,161,91
401871.350,5755911.070,79.580,136,160,93
401871.270,5755911.000,79.550,133,154,87
401871.260,5755910.960,79.630,129,149,85
401871.170,5755910.890,79.580,142,161,99
401871.110,5755910.820,79.570,141,158,93
401871.320,5755911.150,79.630,145,166,97
401871.220,5755911.070,79.570,138,160,88
401871.160,5755911.010,79.570,138,159,90
401871.080,5755910.930,79.540,153,170,106
401870.920,5755910.880,79.570,153,171,104
401870.880,5755910.940,79.610,152,169,98
401870.900,5755911.070,79.640,145,162,102
401870.200,5755911.230,79.620,140,164,83
401870.340,5755911.530,79.560,108,140,52
401870.340,5755911.490,79.650,120,152,67
401870.310,5755911.440,79.680,135,165,84
401870.300,5755911.600,79.600,93,127,50
401870.260,5755911.550,79.630,110,138,63
401870.240,5755911.500,79.680,125,151,73
401870.240,5755911.660,79.600,109,136,70
401870.160,5755911.590,79.570,107,129,62
401870.140,5755911.540,79.630,105,129,59
401870.170,5755911.720,79.590,128,151,84
401870.110,5755911.650,79.590,117,139,71
401870.100,5755911.610,79.660,112,135,71
401870.110,5755911.580,79.750,109,134,66
401870.070,5755911.710,79.610,127,153,83
401870.050,5755911.680,79.670,135,157,95
401870.030,5755911.630,79.740,132,152,91
401869.970,5755911.570,79.730,128,149,86
401870.020,5755911.780,79.630,125,156,80
401869.980,5755911.730,79.670,139,163,97
401869.960,5755911.680,79.720,136,154,93
401869.920,5755911.640,79.750,119,140,77
401869.930,5755911.790,79.680,125,155,82
401869.880,5755911.730,79.700,123,149,81
401869.870,5755911.690,79.770,118,145,76
401869.820,5755911.630,79.770,116,134,72
401869.700,5755911.630,79.790,94,125,63
401869.830,5755911.880,79.800,109,148,71
401869.770,5755911.820,79.800,125,157,85
401891.650,5755901.680,80.000,116,152,100
401891.540,5755901.740,79.900,94,128,71
401891.470,5755901.610,80.010,104,130,71
401891.420,5755901.550,80.000,109,140,87
401891.360,5755901.510,79.960,101,137,85
401891.300,5755901.430,79.990,94,131,81
401891.470,5755901.770,79.950,74,106,53
401891.410,5755901.690,79.960,81,100,50
401891.360,5755901.680,79.890,106,130,81
401891.300,5755901.580,79.950,108,142,91
401891.250,5755901.540,79.910,92,129,78
401891.190,5755901.470,79.920,94,130,75
401891.350,5755901.750,79.960,88,116,66
401891.300,5755901.720,79.920,107,138,85
401891.240,5755901.660,79.910,112,148,93
401891.180,5755901.600,79.900,96,133,79
401891.120,5755901.510,79.950,96,133,78
401891.230,5755901.750,79.960,110,148,95
401891.170,5755901.690,79.960,100,138,84
401891.110,5755901.600,79.990,93,130,79
401891.060,5755901.550,79.970,87,125,72
401891.160,5755901.770,80.020,103,141,88
401891.100,5755901.710,80.010,94,133,80
401891.050,5755901.640,80.020,89,128,80
401890.990,5755901.590,80.000,81,121,72
401891.100,5755901.830,80.020,106,145,92
401891.040,5755901.770,80.000,96,134,82
401890.980,5755901.690,80.040,89,127,76
401890.920,5755901.630,80.020,90,127,76
401891.030,5755901.860,80.060,108,147,94
401890.980,5755901.820,80.020,99,138,86
401890.920,5755901.750,80.030,92,131,79
401890.860,5755901.690,80.020,105,140,86
401891.030,5755901.990,80.040,92,134,81
401890.970,5755902.040,80.030,102,141,86
401890.900,5755902.110,80.020,102,138,81
401890.720,5755902.180,80.000,101,138,87
401890.540,5755901.920,80.090,112,147,96
401890.660,5755902.230,80.000,91,127,73
401890.600,5755902.140,80.040,88,123,68
401890.540,5755902.080,80.030,113,143,91
401890.480,5755902.000,80.060,115,147,99
401890.360,5755901.860,80.080,113,142,97
401890.540,5755902.260,79.960,95,126,74
401890.480,5755902.180,79.980,114,143,91
401890.430,5755902.160,79.920,103,137,89
401890.360,5755902.000,80.060,87,125,81
401890.300,5755901.960,80.010,99,134,85
401890.420,5755902.280,79.920,91,128,72
401890.370,5755902.260,79.860,105,143,88
401890.300,5755902.120,79.970,110,150,98
401890.250,5755902.070,79.940,109,148,94
401890.190,5755901.980,79.980,93,134,81
401890.360,5755902.380,79.850,107,144,87
401890.310,5755902.360,79.800,121,158,99
401890.240,5755902.220,79.900,126,164,110
401890.190,5755902.160,79.900,116,156,100
401890.130,5755902.090,79.910,96,138,85
401890.070,5755902.040,79.890,83,123,74
401890.190,5755902.360,79.770,126,165,112
401890.130,5755902.270,79.820,122,163,107
401890.070,5755902.190,79.840,99,141,90
401890.010,5755902.110,79.870,94,135,87
401890.130,5755902.430,79.750,127,165,109
401890.070,5755902.380,79.730,117,159,104
401890.010,5755902.300,79.750,98,143,91
401889.950,5755902.210,79.790,112,154,105
401889.890,5755902.110,79.850,125,163,111
401890.060,5755902.480,79.770,119,157,101
401890.000,5755902.420,79.750,116,157,99
401889.940,5755902.350,79.760,114,153,101
401889.880,5755902.280,79.780,127,165,116
401890.000,5755902.540,79.760,109,146,93
401889.940,5755902.470,79.770,114,152,102
401889.880,5755902.410,79.760,108,144,95
401889.820,5755902.340,79.770,121,155,106
401889.870,5755902.530,79.770,117,152,103
401889.820,5755902.480,79.750,114,152,104
401889.760,5755902.400,79.770,113,148,98
401889.750,5755902.530,79.760,122,158,112
401889.700,5755902.470,79.750,112,147,98
401889.690,5755902.620,79.720,116,148,101
401889.630,5755902.560,79.700,114,149,102
401889.680,5755902.690,79.790,113,145,86
401889.620,5755902.640,79.770,114,146,91
401889.570,5755902.610,79.720,118,152,95
401889.560,5755902.690,79.780,86,119,62
401889.500,5755902.640,79.760,103,136,77
401889.440,5755902.570,79.770,127,162,103
401889.500,5755902.760,79.760,83,115,62
401889.440,5755902.680,79.790,118,149,98
401889.380,5755902.650,79.740,124,158,102
401889.320,5755902.500,79.870,135,168,106
401889.270,5755902.390,79.930,147,183,121
401889.430,5755902.790,79.800,87,116,61
401889.380,5755902.740,79.790,118,143,92
401889.320,5755902.710,79.730,124,154,98
401889.260,5755902.640,79.740,125,154,96
401889.200,5755902.530,79.800,136,165,108
401889.150,5755902.420,79.880,128,162,109
401889.370,5755902.840,79.820,90,113,59
401889.310,5755902.800,79.790,113,136,83
401889.250,5755902.730,79.790,116,144,88
401889.190,5755902.660,79.800,110,140,84
401889.140,5755902.580,79.830,131,159,103
401889.090,5755902.490,79.860,136,168,115
401889.300,5755902.870,79.860,95,119,67
401889.250,5755902.830,79.820,104,131,78
401889.190,5755902.780,79.800,108,138,84
401889.130,5755902.740,79.750,123,154,97
401889.070,5755902.590,79.890,136,167,110
401889.020,5755902.540,79.870,135,168,113
401889.180,5755902.880,79.840,113,146,91
401889.130,5755902.830,79.810,122,154,99
401889.070,5755902.780,79.780,134,165,109
401889.010,5755902.630,79.920,134,169,109
401888.960,5755902.560,79.930,135,171,113
401888.900,5755902.580,79.790,136,171,115
401889.120,5755902.920,79.840,118,153,93
401889.060,5755902.880,79.810,129,163,103
401889.000,5755902.820,79.810,134,167,109
401888.950,5755902.670,79.940,132,168,108
401888.890,5755902.610,79.940,139,176,116
401888.840,5755902.600,79.850,134,169,113
401889.060,5755902.960,79.860,126,160,105
401889.000,5755902.930,79.820,130,162,106
401888.940,5755902.860,79.830,141,172,119
401888.880,5755902.770,79.870,139,176,120
401888.830,5755902.700,79.870,133,171,117
401888.770,5755902.650,79.860,127,164,110
401888.990,5755902.970,79.930,120,156,107
401888.930,5755902.940,79.890,117,154,103
401888.870,5755902.840,79.950,126,159,103
401888.820,5755902.830,79.870,135,172,116
401888.770,5755902.740,79.910,127,167,114
401888.710,5755902.640,79.960,125,164,111
401888.930,5755903.000,79.980,125,159,111
401888.870,5755902.980,79.920,113,149,97
401888.810,5755902.890,79.950,97,130,73
401888.750,5755902.840,79.930,124,157,102
401888.700,5755902.770,79.950,138,173,121
401888.650,5755902.670,80.000,134,172,120
401888.860,5755903.040,80.000,126,151,101
401888.810,5755903.020,79.940,96,130,75
401888.750,5755902.930,79.980,88,123,65
401888.700,5755902.870,79.980,124,154,98
401888.640,5755902.800,79.980,145,175,121
401888.580,5755902.710,80.010,134,168,115
401888.800,5755903.080,80.030,99,128,75
401888.740,5755903.060,79.960,102,134,78
401888.680,5755903.000,79.970,106,142,82
401888.640,5755902.920,79.990,109,142,82
401888.580,5755902.840,80.000,125,153,93
401888.520,5755902.780,80.000,131,159,102
401888.680,5755903.090,80.000,121,154,93
401888.620,5755903.030,80.000,111,145,84
401888.560,5755903.010,79.930,105,137,77
401888.510,5755902.920,79.970,109,137,78
401888.460,5755902.850,79.980,102,130,69
401888.400,5755902.780,79.990,96,126,63
401888.620,5755903.180,79.960,119,147,89
401888.560,5755903.130,79.940,94,124,66
401888.500,5755903.050,79.960,102,132,76
401888.450,5755902.980,79.970,95,125,70
401888.390,5755902.920,79.970,90,121,61
401888.550,5755903.210,80.000,115,147,91
401888.490,5755903.180,79.950,106,140,82
401888.440,5755903.140,79.920,114,144,88
401888.390,5755903.070,79.930,112,142,88
401888.330,5755903.020,79.920,94,123,69
401888.270,5755902.930,79.950,96,122,63
401888.490,5755903.230,80.060,139,171,115
401888.430,5755903.200,80.010,115,148,91
401888.370,5755903.170,79.960,95,124,70
401888.320,5755903.140,79.920,89,119,67
401888.270,5755903.040,79.960,84,115,67
401888.210,5755902.900,80.060,95,127,75
401888.370,5755903.210,80.070,90,126,73
401888.320,5755903.190,80.020,63,96,48
401888.260,5755903.150,79.980,80,107,59
401888.200,5755903.030,80.050,111,142,96
401888.150,5755902.960,80.070,120,157,108
401888.300,5755903.300,80.030,88,126,77
401888.260,5755903.240,80.030,62,101,57
401888.200,5755903.160,80.050,80,114,65
401888.140,5755903.090,80.060,128,164,114
401888.080,5755903.030,80.050,137,175,126
401888.030,5755903.000,80.000,149,180,128
401888.240,5755903.320,80.070,110,152,103
401888.190,5755903.270,80.060,99,145,103
401888.140,5755903.200,80.070,118,158,108
401888.080,5755903.170,80.030,141,181,128
401888.020,5755903.120,80.010,133,172,120
401887.960,5755903.080,79.970,138,173,122
401887.900,5755903.010,79.990,141,178,119
401888.180,5755903.380,80.080,133,172,120
401888.130,5755903.320,80.070,144,181,133
401888.070,5755903.250,80.080,157,190,139
401888.020,5755903.210,80.040,143,180,126
401887.960,5755903.170,80.020,120,158,104
401887.900,5755903.160,79.950,115,149,97
401887.840,5755903.070,79.980,130,170,112
401888.070,5755903.380,80.070,131,165,114
401888.010,5755903.290,80.100,139,172,117
401887.950,5755903.240,80.080,121,158,101
401887.890,5755903.200,80.050,108,143,89
401887.840,5755903.170,80.010,112,149,94
401887.780,5755903.090,80.020,131,170,112
401888.000,5755903.470,80.010,134,167,112
401887.830,5755903.220,80.100,130,165,109
401887.770,5755903.180,80.060,130,168,109
401887.720,5755903.130,80.050,125,164,106
401887.880,5755903.420,80.080,140,175,113
401887.710,5755903.210,80.100,131,166,110
401887.650,5755903.160,80.080,124,158,106
401887.590,5755903.180,80.130,117,152,103
401887.340,5755903.300,80.110,99,133,77
401887.280,5755903.370,80.100,89,127,74
401887.220,5755903.310,80.100,86,119,70
401887.280,5755903.490,80.100,104,142,87
401887.220,5755903.430,80.100,111,146,91
401887.160,5755903.380,80.080,106,135,85
401887.270,5755903.620,80.090,83,123,66
401887.210,5755903.590,80.040,95,131,72
401887.150,5755903.550,80.020,95,127,71
401887.090,5755903.480,80.020,113,140,85
401887.040,5755903.440,79.990,118,144,87
401887.210,5755903.690,80.080,79,119,66
401887.150,5755903.660,80.030,69,105,48
401887.090,5755903.610,80.000,93,124,66
401887.030,5755903.540,80.010,104,134,78
401886.970,5755903.460,80.040,94,126,72
401887.140,5755903.750,80.070,81,124,69
401887.080,5755903.710,80.040,80,117,61
401887.020,5755903.690,79.980,109,139,83
401886.970,5755903.640,79.970,104,136,82
401886.910,5755903.590,79.940,102,135,83
401886.850,5755903.510,79.960,95,130,79
401887.020,5755903.790,80.010,111,144,83
401886.960,5755903.770,79.940,121,151,89
401886.900,5755903.760,79.870,115,148,89
401886.840,5755903.740,79.800,103,140,83
401886.720,5755903.610,79.800,91,123,71
401886.960,5755903.850,80.000,119,154,96
401886.900,5755903.800,79.970,112,147,89
401886.840,5755903.770,79.930,108,142,86
401886.780,5755903.730,79.900,101,135,78
401886.720,5755903.660,79.910,91,126,73
401886.660,5755903.590,79.920,88,121,70
401864.900,5755914.160,79.600,114,116,53
401864.960,5755914.100,79.600,109,115,51
401864.890,5755913.910,79.580,114,119,54
401865.080,5755914.090,79.580,124,128,61
401864.830,5755913.740,79.600,133,137,69
401864.890,5755913.790,79.580,108,118,50
401864.960,5755913.860,79.610,98,108,42
401865.150,5755914.040,79.590,125,128,63
401864.960,5755913.730,79.600,111,118,51
401865.020,5755913.800,79.600,105,115,48
401865.080,5755913.860,79.620,121,129,59
401865.150,5755913.930,79.620,130,138,68
401865.210,5755913.980,79.600,138,141,76
401865.010,5755913.660,79.550,138,136,74
401865.080,5755913.730,79.600,129,134,67
401865.270,5755913.920,79.620,142,144,81
401865.330,5755913.980,79.600,154,146,86
401865.080,5755913.590,79.540,153,145,86
401865.140,5755913.670,79.590,153,148,87
401865.210,5755913.740,79.610,158,154,90
401865.270,5755913.800,79.610,164,160,97
401865.330,5755913.860,79.600,155,152,90
401865.390,5755913.910,79.580,162,152,92
401865.270,5755913.670,79.600,168,159,98
401865.330,5755913.730,79.580,162,156,93
401865.390,5755913.780,79.560,166,158,95
401865.450,5755913.840,79.560,155,147,89
401865.330,5755913.600,79.590,158,151,90
401865.390,5755913.660,79.550,153,148,86
401865.450,5755913.720,79.540,154,148,88
401865.510,5755913.780,79.540,147,141,83
401865.580,5755913.840,79.540,143,142,83
401865.330,5755913.480,79.600,155,151,88
401865.390,5755913.530,79.560,152,150,86
401865.450,5755913.590,79.540,155,150,90
401865.510,5755913.660,79.560,145,141,83
401865.580,5755913.720,79.570,132,130,71
401865.640,5755913.780,79.560,131,133,73
401865.450,5755913.470,79.580,150,148,88
401865.510,5755913.540,79.570,143,140,81
401865.580,5755913.600,79.570,124,124,65
401865.640,5755913.660,79.590,123,123,64
401865.700,5755913.730,79.590,127,127,69
401865.510,5755913.410,79.590,149,142,89
401865.570,5755913.470,79.570,134,130,73
401865.640,5755913.530,79.540,122,122,63
401865.700,5755913.610,79.610,115,115,56
401865.760,5755913.670,79.610,124,122,64
401865.640,5755913.410,79.570,111,110,54
401865.700,5755913.470,79.580,108,108,51
401865.760,5755913.550,79.630,113,111,55
401865.830,5755913.620,79.650,113,111,56
401865.700,5755913.360,79.620,96,100,46
401865.760,5755913.420,79.600,93,96,40
401865.830,5755913.490,79.650,110,110,56
401865.890,5755913.550,79.660,110,109,55
401865.760,5755913.300,79.650,98,103,44
401865.830,5755913.370,79.660,99,103,47
401865.890,5755913.440,79.680,94,100,47
401865.820,5755913.260,79.660,99,105,43
401865.890,5755913.320,79.670,96,104,45
401865.950,5755913.390,79.700,83,96,40
401865.950,5755913.260,79.670,103,112,49
401866.010,5755913.320,79.690,105,116,54
401866.010,5755913.190,79.670,113,121,55
401866.070,5755913.260,79.700,126,131,64
401866.070,5755913.130,79.680,127,133,62
401866.140,5755913.200,79.710,137,140,70
401866.200,5755913.130,79.680,134,137,63
401866.260,5755913.080,79.710,131,133,61
401866.320,5755913.020,79.720,137,139,67
401866.440,5755913.010,79.710,137,143,69
401866.510,5755913.080,79.720,137,140,66
401866.500,5755912.930,79.650,140,147,74
401866.570,5755913.000,79.640,139,142,71
401866.630,5755913.080,79.720,130,133,67
401866.630,5755912.920,79.590,130,137,68
401866.690,5755913.000,79.660,133,137,71
401866.880,5755913.190,79.710,117,124,62
401866.690,5755912.860,79.590,124,130,65
401866.750,5755912.930,79.630,135,135,72
401866.810,5755913.020,79.740,130,132,71
401866.940,5755913.130,79.710,99,106,47
401867.000,5755913.180,79.660,111,115,57
401866.750,5755912.810,79.640,129,132,67
401866.810,5755912.870,79.660,139,137,74
401866.880,5755912.960,79.730,138,137,76
401866.940,5755913.030,79.740,127,129,70
401867.000,5755913.080,79.710,102,109,49
401867.060,5755913.130,79.660,98,105,44
401866.870,5755912.820,79.660,141,140,80
401866.940,5755912.900,79.720,143,143,81
401867.060,5755913.020,79.710,119,130,65
401867.130,5755913.070,79.660,110,124,58
401866.940,5755912.770,79.700,136,139,78
401867.120,5755912.950,79.700,133,143,77
401867.190,5755913.000,79.640,134,146,80
401867.250,5755913.050,79.620,135,141,75
401867.000,5755912.700,79.690,128,133,75
401867.060,5755912.780,79.760,134,138,82
401867.120,5755912.850,79.770,122,132,75
401867.190,5755912.890,79.710,120,128,70
401867.250,5755912.940,79.660,110,119,61
401867.310,5755913.000,79.640,120,124,65
401867.120,5755912.710,79.720,105,116,61
401867.180,5755912.780,79.740,110,120,67
401867.250,5755912.830,79.710,114,122,71
401867.310,5755912.880,79.680,90,101,52
401867.370,5755912.940,79.660,90,99,48
401867.430,5755912.990,79.630,116,120,63
401867.180,5755912.620,79.620,95,108,52
401867.250,5755912.690,79.640,89,99,50
401867.310,5755912.750,79.660,86,94,49
401867.370,5755912.820,79.670,77,87,43
401867.430,5755912.880,79.670,79,90,43
401867.490,5755912.930,79.640,84,92,41
401867.310,5755912.630,79.670,90,101,53
401867.370,5755912.720,79.770,64,75,35
401867.430,5755912.780,79.750,60,72,32
401867.490,5755912.830,79.740,69,82,39
401867.560,5755912.890,79.700,69,79,32
401867.370,5755912.580,79.730,84,99,45
401867.430,5755912.660,79.770,61,75,32
401867.490,5755912.730,79.790,58,73,31
401867.550,5755912.780,79.760,71,84,40
401867.620,5755912.830,79.730,76,87,38
401867.670,5755912.890,79.730,87,96,40
401867.430,5755912.520,79.730,82,98,39
401867.490,5755912.600,79.790,68,86,34
401867.550,5755912.680,79.850,63,80,32
401867.610,5755912.730,79.820,68,83,34
401867.680,5755912.790,79.790,83,95,40
401867.730,5755912.850,79.790,102,112,52
401867.490,5755912.480,79.810,93,106,45
401867.550,5755912.560,79.850,90,103,43
401867.610,5755912.620,79.850,87,101,43
401867.680,5755912.670,79.840,91,103,44
401867.740,5755912.730,79.830,111,120,59
401867.790,5755912.790,79.810,117,127,61
401867.550,5755912.430,79.840,90,103,44
401867.610,5755912.500,79.880,100,109,49
401867.670,5755912.570,79.890,106,116,52
401867.740,5755912.620,79.870,117,125,59
401867.800,5755912.680,79.870,130,138,70
401867.860,5755912.740,79.850,125,136,64
401867.800,5755912.590,79.930,118,123,56
401867.860,5755912.640,79.910,129,134,64
401867.920,5755912.690,79.880,122,133,60
401867.980,5755912.650,79.930,123,133,60
401868.030,5755912.690,79.870,119,130,59
401868.090,5755912.650,79.930,130,136,63
401868.160,5755912.450,79.900,125,133,59
401868.210,5755912.530,79.980,132,140,62
401868.270,5755912.600,79.990,133,142,61
401868.220,5755912.400,79.950,124,136,58
401868.270,5755912.470,79.960,121,134,48
401868.340,5755912.530,79.970,125,138,46
401868.400,5755912.470,79.990,136,147,55
401868.760,5755912.340,79.960,140,141,70
401868.770,5755912.200,79.920,135,141,66
401868.830,5755912.250,79.850,134,139,64
401868.900,5755912.300,79.840,141,144,69
401868.830,5755912.140,79.890,131,134,64
401868.890,5755912.190,79.840,133,139,62
401868.960,5755912.250,79.830,130,135,61
401868.710,5755911.910,79.930,141,147,73
401868.890,5755912.080,79.880,108,113,44
401868.960,5755912.120,79.810,116,122,45
401869.020,5755912.170,79.790,115,119,43
401869.090,5755912.230,79.760,126,128,55
401868.950,5755912.010,79.850,89,101,33
401869.020,5755912.050,79.780,99,109,35
401869.080,5755912.110,79.780,114,117,42
401869.150,5755912.160,79.760,118,121,46
401868.900,5755911.840,79.890,115,134,50
401869.010,5755911.960,79.900,93,114,38
401869.080,5755911.990,79.800,95,112,35
401869.140,5755912.040,79.770,109,116,42
401869.210,5755912.100,79.750,105,112,42
401869.010,5755911.830,79.860,109,133,48
401869.070,5755911.880,79.860,107,131,48
401869.140,5755911.930,79.790,96,115,39
401869.210,5755911.980,79.760,104,118,46
401869.270,5755912.040,79.750,95,110,43
401869.330,5755912.100,79.770,108,117,51
401869.080,5755911.750,79.830,117,139,56
401869.140,5755911.800,79.790,114,136,52
401869.210,5755911.850,79.760,112,134,53
401869.270,5755911.910,79.740,119,137,62
401869.330,5755911.970,79.740,116,135,59
401869.390,5755912.040,79.770,122,136,58
401869.210,5755911.720,79.730,121,142,61
401869.270,5755911.780,79.720,118,139,55
401869.330,5755911.850,79.750,116,135,53
401869.390,5755911.920,79.780,121,138,56
401869.450,5755912.000,79.840,123,140,55
401869.270,5755911.650,79.720,135,151,71
401869.330,5755911.720,79.750,114,134,52
401869.390,5755911.790,79.770,110,132,47
401869.450,5755911.860,79.790,128,143,58
401869.510,5755911.940,79.870,134,147,61
401869.330,5755911.610,79.760,113,127,51
401869.390,5755911.680,79.800,107,129,45
401869.450,5755911.740,79.800,118,139,53
401869.510,5755911.810,79.820,136,146,65
401869.450,5755911.610,79.780,92,112,41
401869.510,5755911.680,79.800,114,130,51
401869.570,5755911.740,79.820,139,145,70
401869.510,5755911.540,79.760,61,83,26
401869.570,5755911.600,79.770,95,111,45
401869.630,5755911.680,79.810,126,135,64
401869.820,5755911.860,79.800,137,148,70
401869.630,5755911.540,79.770,114,132,60
401869.700,5755911.610,79.780,131,141,72
401869.760,5755911.660,79.760,141,145,79
401869.820,5755911.720,79.760,144,145,76
401869.890,5755911.780,79.730,139,148,70
401869.950,5755911.830,79.700,134,150,69
401869.700,5755911.480,79.760,140,150,77
401869.760,5755911.540,79.780,133,141,76
401869.820,5755911.600,79.750,120,124,63
401869.890,5755911.650,79.740,127,127,59
401869.960,5755911.690,79.670,136,139,65
401870.030,5755911.730,79.590,132,144,62
401869.760,5755911.420,79.750,140,147,71
401869.880,5755911.540,79.750,117,123,60
401869.950,5755911.600,79.720,121,125,59
401870.030,5755911.610,79.590,119,122,56
401870.100,5755911.640,79.500,112,120,46
401870.160,5755911.690,79.470,122,132,50
401869.880,5755911.420,79.740,129,134,62
401869.950,5755911.470,79.710,125,133,62
401870.010,5755911.530,79.720,122,132,57
401870.080,5755911.580,79.670,110,118,42
401870.150,5755911.600,79.550,118,123,49
401870.220,5755911.650,79.510,125,129,54
401869.950,5755911.320,79.640,140,143,65
401870.020,5755911.390,79.660,143,150,70
401870.080,5755911.460,79.680,134,142,61
401870.140,5755911.520,79.680,110,122,41
401870.200,5755911.580,79.670,112,119,38
401870.270,5755911.640,79.670,122,127,49
401870.080,5755911.330,79.660,151,154,68
401870.140,5755911.400,79.690,144,147,64
401870.200,5755911.460,79.680,129,141,56
401870.270,5755911.500,79.620,118,132,47
401870.340,5755911.550,79.570,118,130,41
401870.390,5755911.620,79.630,113,127,34
401870.150,5755911.240,79.600,139,143,55
401870.200,5755911.320,79.660,131,136,51
401870.260,5755911.390,79.670,135,144,59
401870.320,5755911.460,79.680,131,145,56
401870.400,5755911.490,79.590,124,137,45
401870.470,5755911.530,79.530,118,132,35
401870.590,5755911.530,79.530,115,131,44
401871.070,5755911.310,79.640,118,126,60
401870.890,5755910.970,79.550,124,127,50
401871.090,5755911.150,79.530,130,140,67
401871.140,5755911.220,79.560,121,132,63
401870.960,5755910.900,79.500,143,141,71
401871.020,5755910.970,79.530,148,145,74
401871.090,5755911.040,79.530,147,147,78
401871.140,5755911.110,79.560,132,140,69
401871.200,5755911.180,79.590,123,133,59
401871.020,5755910.860,79.570,144,138,75
401871.070,5755910.940,79.620,151,144,78
401871.130,5755911.010,79.630,140,139,72
401871.070,5755910.810,79.590,126,120,62
401871.130,5755910.880,79.630,127,120,59
401871.380,5755911.000,79.620,130,130,62
401871.250,5755910.760,79.650,81,91,40
401871.320,5755910.820,79.640,111,116,58
401871.390,5755910.860,79.590,120,124,60
401871.460,5755910.910,79.550,128,130,64
401871.510,5755910.990,79.600,124,131,63
401871.570,5755911.040,79.570,118,129,63
401871.320,5755910.690,79.630,81,95,45
401871.380,5755910.750,79.630,108,115,60
401871.450,5755910.790,79.550,105,112,51
401871.530,5755910.810,79.440,116,122,57
401871.590,5755910.880,79.450,130,139,71
401871.650,5755910.940,79.460,119,135,66
401871.720,5755910.990,79.420,98,115,48
401871.440,5755910.690,79.620,94,107,51
401871.520,5755910.730,79.550,99,113,51
401871.590,5755910.760,79.480,104,119,54
401871.650,5755910.830,79.480,116,127,62
401871.710,5755910.890,79.480,104,119,52
401871.770,5755910.950,79.480,92,110,43
401871.500,5755910.640,79.670,97,115,56
401871.560,5755910.690,79.640,97,117,55
401871.630,5755910.740,79.590,99,117,55
401871.700,5755910.790,79.560,95,110,52
401871.760,5755910.840,79.530,89,104,44
401871.820,5755910.900,79.520,82,102,40
401871.690,5755910.680,79.620,75,97,40
401871.760,5755910.730,79.580,58,75,29
401871.820,5755910.790,79.550,63,79,30
401871.870,5755910.880,79.640,75,95,36
401871.750,5755910.630,79.630,87,110,53
401871.820,5755910.680,79.600,54,76,31
401871.880,5755910.750,79.620,62,86,38
401871.810,5755910.570,79.650,101,125,64
401871.880,5755910.620,79.610,84,110,49
401871.940,5755910.690,79.640,73,100,40
401871.810,5755910.450,79.670,89,116,54
401871.870,5755910.500,79.630,99,123,60
401871.940,5755910.560,79.630,83,110,45
401872.000,5755910.620,79.630,79,107,43
401872.050,5755910.700,79.660,82,110,50
401871.940,5755910.450,79.620,90,114,48
401872.000,5755910.510,79.640,84,109,42
401872.060,5755910.570,79.620,93,120,54
401871.990,5755910.400,79.660,70,95,38
401872.060,5755910.440,79.620,74,98,35
401872.130,5755910.480,79.560,89,115,43
401872.050,5755910.340,79.680,66,94,35
401872.120,5755910.380,79.630,77,105,35
401872.190,5755910.430,79.580,87,114,40
401872.230,5755910.520,79.670,81,110,38
401872.290,5755910.580,79.670,90,116,43
401872.180,5755910.330,79.650,84,113,41
401872.250,5755910.360,79.580,72,99,36
401872.290,5755910.460,79.680,68,94,37
401872.230,5755910.290,79.710,96,122,56
401872.300,5755910.340,79.690,85,112,48
401872.360,5755910.380,79.640,69,97,38
401872.430,5755910.440,79.610,84,111,48
401872.490,5755910.500,79.610,97,123,56
401872.560,5755910.550,79.590,100,122,55
401872.290,5755910.230,79.730,96,121,59
401872.360,5755910.280,79.700,88,112,48
401872.430,5755910.320,79.640,64,90,33
401872.490,5755910.370,79.590,69,96,38
401872.540,5755910.460,79.670,76,101,44
401872.630,5755910.460,79.500,96,120,53
401872.690,5755910.540,79.550,93,115,49
401872.420,5755910.220,79.690,76,102,47
401872.480,5755910.270,79.670,82,108,47
401872.540,5755910.330,79.660,92,120,54
401872.610,5755910.370,79.610,65,91,39
401872.680,5755910.420,79.570,88,110,48
401872.760,5755910.460,79.510,77,98,40
401872.470,5755910.170,79.740,76,101,48
401872.540,5755910.220,79.700,93,120,53
401872.600,5755910.270,79.680,107,135,59
401872.670,5755910.320,79.640,76,104,42
401872.740,5755910.360,79.590,70,97,37
401872.810,5755910.420,79.580,66,90,37
401872.870,5755910.470,79.550,60,81,35
401872.530,5755910.120,79.760,61,89,36
401872.670,5755910.190,79.620,108,137,64
401872.730,5755910.250,79.630,85,114,47
401872.800,5755910.310,79.620,69,96,37
401872.860,5755910.360,79.590,70,95,41
401872.930,5755910.420,79.590,84,107,51
401872.660,5755910.110,79.740,82,112,51
401872.710,5755910.170,79.730,88,115,53
401872.770,5755910.230,79.740,74,102,41
401872.850,5755910.260,79.650,62,92,34
401872.920,5755910.310,79.630,70,95,41
401872.990,5755910.360,79.590,72,94,41
401872.720,5755910.030,79.700,76,105,48
401872.780,5755910.090,79.700,60,89,39
401872.840,5755910.150,79.700,68,99,41
401872.910,5755910.190,79.640,72,103,41
401872.980,5755910.250,79.620,80,106,49
401873.050,5755910.310,79.610,57,81,33
401873.110,5755910.370,79.630,63,86,32
401872.830,5755910.050,79.730,44,73,32
401872.900,5755910.110,79.720,63,93,40
401872.980,5755910.130,79.630,67,96,37
401873.050,5755910.180,79.610,87,113,46
401873.110,5755910.250,79.610,57,84,30
401873.170,5755910.320,79.630,47,72,26
401872.900,5755909.990,79.730,43,75,34
401872.980,5755910.010,79.620,39,67,27
401873.040,5755910.070,79.620,46,70,28
401873.110,5755910.120,79.580,56,78,29
401873.170,5755910.180,79.590,37,62,23
401873.230,5755910.250,79.610,36,62,25
401873.040,5755909.950,79.640,34,62,27
401873.100,5755910.010,79.620,26,51,22
401873.170,5755910.060,79.600,24,48,21
401873.240,5755910.120,79.580,25,52,23
401873.290,5755910.190,79.620,39,67,29
401873.090,5755909.900,79.660,41,69,30
401873.170,5755909.940,79.600,34,61,27
401873.230,5755910.010,79.620,26,53,23
401873.280,5755910.080,79.660,37,67,30
401873.350,5755910.140,79.660,45,78,33
401873.400,5755910.220,79.700,52,84,33
401873.150,5755909.850,79.690,41,68,31
401873.220,5755909.890,79.650,47,75,33
401873.290,5755909.950,79.630,35,65,28
401873.340,5755910.030,79.680,39,70,30
401873.410,5755910.070,79.640,45,77,33
401873.460,5755910.160,79.710,54,87,36
401873.280,5755909.830,79.650,52,82,36
401873.340,5755909.890,79.660,48,80,34
401873.390,5755909.980,79.720,36,68,27
401873.450,5755910.050,79.730,36,66,26
401873.500,5755910.120,79.780,45,75,32
401873.340,5755909.780,79.680,47,75,36
401873.400,5755909.840,79.690,51,83,35
401873.440,5755909.940,79.790,34,65,25
401873.490,5755910.020,79.830,29,59,22
401873.450,5755909.790,79.720,35,62,26
401873.490,5755909.890,79.820,29,59,23
401873.540,5755909.850,79.870,35,65,27
401874.910,5755909.050,79.580,85,115,50
401875.040,5755909.050,79.550,85,115,51
401875.100,5755908.990,79.570,74,100,44
401875.160,5755909.050,79.560,95,125,62
401875.230,5755909.110,79.550,89,121,59
401875.240,5755908.960,79.500,102,125,63
401875.300,5755909.030,79.510,106,135,64
401875.270,5755908.940,79.610,91,116,58
401875.340,5755909.000,79.610,97,125,54
401875.400,5755909.060,79.590,83,114,51
401875.470,5755909.110,79.570,58,88,38
401875.340,5755908.880,79.600,86,117,52
401875.400,5755908.940,79.600,78,108,43
401875.470,5755908.990,79.580,86,115,55
401875.540,5755909.040,79.550,55,88,39
401875.400,5755908.820,79.600,84,115,44
401875.460,5755908.880,79.600,73,103,40
401875.530,5755908.930,79.580,89,117,53
401875.600,5755908.980,79.550,76,107,48
401875.460,5755908.760,79.620,86,116,52
401875.540,5755908.790,79.550,82,114,53
401875.590,5755908.870,79.580,94,123,62
401875.650,5755908.940,79.610,90,120,56
401875.590,5755908.740,79.570,101,130,67
401875.640,5755908.820,79.610,97,125,61
401875.900,5755908.560,79.590,69,101,42
401875.950,5755908.630,79.620,71,102,38
401876.010,5755908.690,79.620,62,89,31
401876.070,5755908.760,79.610,73,101,43
401876.150,5755908.780,79.530,90,118,58
401876.240,5755908.820,79.480,86,113,51
401876.140,5755908.700,79.610,71,98,40
401876.220,5755908.720,79.510,94,115,53
401876.350,5755908.690,79.300,87,106,47
401876.110,5755908.470,79.510,82,108,48
401876.130,5755908.580,79.640,83,108,49
401876.210,5755908.630,79.600,73,98,38
401876.270,5755908.670,79.550,84,102,40
401876.380,5755908.670,79.390,91,107,49
401876.260,5755908.580,79.630,90,112,50
401876.320,5755908.630,79.610,88,104,42
401876.400,5755908.670,79.540,99,111,53
401876.390,5755908.550,79.560,96,111,51
401886.530,5755904.070,80.010,101,137,73
401886.460,5755904.010,80.020,105,141,73
401886.390,5755903.940,80.040,109,146,79
401886.320,5755903.880,80.060,102,137,72
401886.290,5755903.820,80.010,108,147,81
401886.450,5755904.130,80.030,105,140,77
401886.380,5755904.060,80.050,100,133,69
401886.160,5755903.820,80.030,99,142,83
401886.400,5755904.190,80.020,117,149,85
401886.310,5755904.120,80.060,121,151,89
401886.210,5755904.000,80.030,97,134,75
401886.170,5755903.940,80.000,100,137,73
401886.130,5755903.880,79.980,94,136,72
401886.330,5755904.240,80.030,121,152,92
401886.250,5755904.180,80.050,112,146,92
401886.210,5755904.120,80.030,96,132,79
401886.180,5755904.060,79.980,91,126,72
401886.130,5755904.000,79.980,104,140,79
401886.100,5755903.940,79.940,103,144,80
401886.050,5755903.870,79.930,100,141,77
401886.200,5755904.240,80.040,104,139,87
401886.160,5755904.180,80.020,86,120,69
401886.140,5755904.120,79.960,90,120,77
401886.070,5755904.060,79.980,92,126,74
401885.970,5755903.990,80.020,108,144,81
401886.000,5755903.930,79.920,106,145,82
401886.160,5755904.300,80.020,98,132,77
401886.080,5755904.240,80.040,75,112,60
401885.940,5755904.110,80.060,85,114,66
401885.890,5755904.050,80.050,100,131,72
401885.850,5755903.990,80.030,92,127,72
401886.090,5755904.360,80.020,95,128,64
401886.030,5755904.300,80.020,77,113,59
401885.950,5755904.230,80.050,76,106,56
401885.900,5755904.170,80.030,94,118,72
401885.840,5755904.110,80.040,100,124,75
401885.760,5755904.050,80.060,92,121,69
401885.930,5755904.340,80.070,99,127,71
401885.650,5755904.160,80.050,122,145,91
401885.600,5755904.090,80.040,116,146,88
401885.750,5755904.400,80.070,48,78,37
401885.630,5755904.280,80.070,81,104,65
401885.600,5755904.210,80.030,110,135,89
401885.550,5755904.150,80.020,108,139,85
401885.760,5755904.460,79.970,62,91,49
401885.660,5755904.400,80.020,58,82,44
401885.650,5755904.340,79.960,58,83,45
401885.580,5755904.280,79.970,72,98,51
401885.500,5755904.210,80.000,102,127,72
401885.450,5755904.150,79.980,103,132,74
401885.690,5755904.520,79.990,61,93,49
401885.680,5755904.460,79.920,58,85,41
401885.640,5755904.400,79.890,57,83,40
401885.570,5755904.340,79.910,87,110,56
401885.480,5755904.270,79.940,115,140,78
401885.410,5755904.210,79.960,123,151,91
401885.670,5755904.460,79.770,69,97,49
401885.570,5755904.400,79.820,68,95,46
401885.470,5755904.330,79.880,93,122,66
401885.380,5755904.270,79.910,110,137,81
401885.280,5755904.210,79.980,105,131,81
401885.590,5755904.520,79.780,69,100,47
401885.340,5755904.390,79.970,72,97,49
401885.240,5755904.330,80.020,97,118,67
401885.200,5755904.260,80.010,92,112,59
401885.480,5755904.580,79.860,61,91,43
401885.440,5755904.520,79.820,57,84,41
401885.390,5755904.450,79.810,62,85,45
401885.270,5755904.390,79.900,80,102,58
401885.150,5755904.320,79.990,93,113,63
401885.460,5755904.640,79.800,48,74,38
401885.420,5755904.580,79.770,57,82,44
401885.380,5755904.520,79.740,46,70,37
401885.310,5755904.450,79.760,46,69,36
401885.140,5755904.390,79.910,76,97,53
401885.040,5755904.320,79.970,88,112,61
401882.430,5755905.860,79.910,38,76,45
401882.380,5755905.800,79.900,46,80,46
401882.320,5755905.740,79.910,65,99,58
401882.190,5755905.660,80.020,64,100,51
401881.890,5755905.910,79.710,14,35,20
401881.830,5755905.850,79.710,16,35,21
401881.310,5755906.200,79.750,76,116,66
401881.280,5755906.260,79.690,94,132,82
401881.320,5755906.160,79.410,110,134,83
401881.240,5755906.330,79.650,101,136,86
401881.260,5755906.220,79.410,91,124,71
401880.070,5755907.070,79.630,65,102,46
401880.020,5755907.140,79.590,96,122,67
401879.680,5755907.080,79.440,57,90,44
401879.640,5755907.020,79.410,80,106,60
401879.740,5755907.270,79.420,121,143,93
401879.690,5755907.210,79.400,115,137,92
401879.650,5755907.150,79.370,64,96,55
401879.620,5755907.090,79.340,57,88,49
401879.680,5755907.280,79.310,95,122,74
401879.640,5755907.220,79.260,46,76,46
401879.580,5755907.160,79.270,32,59,32
401879.580,5755907.110,79.150,41,67,38
401879.630,5755907.350,79.280,49,79,42
401879.590,5755907.290,79.240,28,53,31
401879.570,5755907.230,79.160,25,46,26
401879.520,5755907.170,79.130,40,62,36
401879.600,5755907.360,79.100,24,43,27
401879.460,5755907.220,79.140,49,64,39
401879.470,5755907.350,79.100,31,39,22
401879.400,5755907.290,79.130,80,84,58
401876.100,5755908.480,79.550,100,137,73
401876.030,5755908.540,79.550,91,131,65
401875.970,5755908.590,79.530,78,120,58
401875.930,5755908.660,79.480,73,115,56
401875.850,5755908.590,79.530,71,113,52
401876.040,5755908.910,79.480,103,140,80
401875.970,5755908.840,79.510,91,133,71
401875.920,5755908.780,79.500,82,124,67
401875.860,5755908.710,79.510,87,128,73
401875.790,5755908.650,79.540,83,123,65
401875.880,5755908.890,79.580,103,148,79
401875.830,5755908.820,79.580,77,123,61
401875.770,5755908.760,79.570,81,121,64
401875.700,5755908.700,79.590,93,131,73
401875.690,5755908.810,79.620,105,146,78
401875.630,5755908.750,79.620,117,159,89
401875.520,5755908.750,79.590,101,145,80
401875.500,5755908.990,79.610,93,134,76
401875.560,5755909.180,79.590,111,150,80
401875.260,5755908.860,79.610,111,153,80
401875.510,5755909.250,79.560,120,162,86
401875.200,5755908.920,79.610,105,144,81
401875.320,5755909.170,79.600,101,135,72
401875.250,5755909.110,79.610,111,149,85
401875.140,5755908.990,79.590,114,150,83
401875.340,5755909.320,79.510,81,121,59
401875.270,5755909.240,79.560,94,127,67
401875.190,5755909.170,79.610,102,140,81
401875.070,5755909.040,79.610,99,138,72
401875.010,5755908.980,79.610,108,150,77
401875.230,5755909.300,79.510,71,107,53
401875.170,5755909.370,79.480,66,104,55
401875.120,5755909.310,79.460,59,98,51
401873.160,5755910.290,79.740,66,103,46
401873.040,5755910.170,79.740,77,118,56
401873.110,5755910.350,79.680,88,123,57
401873.050,5755910.290,79.690,96,131,66
401872.980,5755910.230,79.720,83,121,58
401872.920,5755910.160,79.720,83,126,61
401872.860,5755910.090,79.720,73,118,61
401872.820,5755910.030,79.710,69,112,55
401873.010,5755910.360,79.620,91,126,66
401872.940,5755910.300,79.640,73,112,58
401872.880,5755910.230,79.650,67,107,51
401872.810,5755910.160,79.680,73,115,57
401872.750,5755910.090,79.700,77,118,59
401872.950,5755910.430,79.600,109,143,81
401872.890,5755910.360,79.620,81,115,64
401872.820,5755910.290,79.640,70,105,53
401872.760,5755910.230,79.660,91,132,68
401872.700,5755910.160,79.650,99,141,75
401872.650,5755910.100,79.660,94,136,72
401872.830,5755910.430,79.580,81,111,60
401872.770,5755910.360,79.600,95,130,70
401872.700,5755910.290,79.630,107,150,75
401872.640,5755910.230,79.630,103,146,74
401872.590,5755910.160,79.650,96,136,70
401872.790,5755910.500,79.530,64,94,43
401872.730,5755910.440,79.530,95,132,68
401872.660,5755910.370,79.570,111,153,77
401872.590,5755910.300,79.590,92,135,65
401872.530,5755910.230,79.630,85,124,61
401872.460,5755910.160,79.650,95,131,77
401872.670,5755910.500,79.520,114,151,78
401872.610,5755910.440,79.500,125,164,86
401872.540,5755910.370,79.550,90,132,65
401872.460,5755910.290,79.610,70,107,48
401872.400,5755910.220,79.660,110,143,83
401872.610,5755910.570,79.500,119,157,81
401872.560,5755910.510,79.460,124,162,88
401872.480,5755910.430,79.530,97,138,71
401872.400,5755910.350,79.590,88,125,59
401872.340,5755910.280,79.660,114,150,82
401872.550,5755910.630,79.500,111,147,74
401872.500,5755910.570,79.470,118,154,81
401872.420,5755910.490,79.530,101,140,73
401872.340,5755910.410,79.600,89,126,56
401872.270,5755910.330,79.690,110,144,72
401872.450,5755910.660,79.610,104,136,64
401872.410,5755910.610,79.540,113,147,72
401872.330,5755910.530,79.610,105,143,74
401872.260,5755910.450,79.690,95,133,60
401872.200,5755910.390,79.690,108,143,67
401872.130,5755910.310,79.730,114,148,77
401872.380,5755910.710,79.640,115,150,78
401872.340,5755910.660,79.590,112,149,74
401872.260,5755910.580,79.640,105,143,68
401872.260,5755910.710,79.620,113,151,77
401872.200,5755910.650,79.630,110,146,71
401872.130,5755910.580,79.660,105,144,63
401872.010,5755910.690,79.650,80,121,47
401872.020,5755910.820,79.620,103,142,71
401871.970,5755910.770,79.550,88,127,56
401871.910,5755910.690,79.610,98,136,67
401871.830,5755910.620,79.670,97,132,68
401871.950,5755910.880,79.630,114,151,77
401871.900,5755910.820,79.590,96,135,64
401871.850,5755910.750,79.610,86,125,55
401871.780,5755910.690,79.620,82,118,51
401871.730,5755910.630,79.590,123,152,88
401871.680,5755910.570,79.570,117,152,92
401871.890,5755910.940,79.610,117,153,75
401871.840,5755910.880,79.600,120,154,82
401871.720,5755910.750,79.610,115,148,79
401871.670,5755910.690,79.580,127,158,90
401871.620,5755910.640,79.560,118,151,87
401871.550,5755910.570,79.580,104,141,84
401871.770,5755910.940,79.600,115,146,71
401871.720,5755910.870,79.610,120,153,73
401871.680,5755910.830,79.530,138,170,93
401871.620,5755910.760,79.540,133,163,89
401871.560,5755910.700,79.540,121,148,81
401871.500,5755910.640,79.530,107,140,81
401871.670,5755910.950,79.540,134,164,85
401871.620,5755910.900,79.510,141,169,91
401871.570,5755910.830,79.500,124,148,79
401871.500,5755910.760,79.530,125,144,81
401871.450,5755910.710,79.500,119,146,89
401871.600,5755911.010,79.550,136,162,87
401871.550,5755910.950,79.540,143,164,89
401871.490,5755910.880,79.550,125,145,79
401871.430,5755910.820,79.540,125,141,78
401871.380,5755910.760,79.530,128,146,88
401871.310,5755910.690,79.560,94,118,66
401871.530,5755911.060,79.570,122,146,69
401871.480,5755910.990,79.600,133,150,75
401871.410,5755910.920,79.620,130,147,81
401871.360,5755910.870,79.580,126,141,78
401871.310,5755910.820,79.530,128,140,80
401871.260,5755910.770,79.490,104,120,65
401871.460,5755911.110,79.600,145,163,83
401871.400,5755911.040,79.630,147,165,88
401871.300,5755910.930,79.590,137,151,85
401871.240,5755910.870,79.570,138,148,86
401871.200,5755910.820,79.500,127,138,76
401871.150,5755910.770,79.460,109,123,63
401871.220,5755910.970,79.630,141,159,87
401871.170,5755910.920,79.610,146,158,95
401871.130,5755910.880,79.510,147,153,92
401871.090,5755910.840,79.420,130,139,77
401871.060,5755910.800,79.320,108,124,59
401871.060,5755910.930,79.550,165,168,105
401871.020,5755910.890,79.450,146,154,87
401870.980,5755910.840,79.360,123,138,61
401870.990,5755910.980,79.590,158,165,101
401870.950,5755910.930,79.480,144,153,79
401870.900,5755910.880,79.430,126,141,57
401870.910,5755911.020,79.630,141,154,88
401870.870,5755910.970,79.570,130,143,73
401870.820,5755910.930,79.500,125,138,62
401870.740,5755910.970,79.570,123,141,65
401870.670,5755911.010,79.630,122,147,68
401870.600,5755911.190,79.640,140,165,76
401870.540,5755911.130,79.630,143,170,81
401870.490,5755911.080,79.600,132,161,69
401870.480,5755911.180,79.660,133,158,70
401870.430,5755911.140,79.590,137,164,73
401870.410,5755911.240,79.660,146,168,76
401870.370,5755911.200,79.590,151,171,78
401870.350,5755911.310,79.640,156,178,85
401870.310,5755911.260,79.580,147,167,71
401870.260,5755911.210,79.530,144,160,70
401870.290,5755911.370,79.640,156,178,93
401870.250,5755911.320,79.560,144,168,76
401870.200,5755911.280,79.490,150,168,75
401870.400,5755911.610,79.670,126,145,60
401870.350,5755911.560,79.610,136,150,68
401870.280,5755911.480,79.670,130,145,67
401870.230,5755911.430,79.620,140,158,75
401870.180,5755911.380,79.580,130,154,70
401870.130,5755911.340,79.510,147,166,75
401870.300,5755911.630,79.560,127,142,62
401870.230,5755911.550,79.620,130,142,66
401870.180,5755911.500,79.580,134,147,70
401870.130,5755911.450,79.530,134,151,71
401870.080,5755911.400,79.470,153,166,79
401870.230,5755911.680,79.590,137,152,79
401870.170,5755911.610,79.620,137,149,78
401870.110,5755911.560,79.590,138,151,79
401870.060,5755911.500,79.570,148,161,85
401870.010,5755911.450,79.490,154,167,90
401870.100,5755911.670,79.630,129,149,76
401870.040,5755911.600,79.640,151,162,93
401869.990,5755911.540,79.600,160,168,103
401869.900,5755911.460,79.730,143,155,89
401870.040,5755911.730,79.610,137,163,85
401869.990,5755911.670,79.590,155,170,99
401869.920,5755911.590,79.640,162,172,109
401869.850,5755911.520,79.680,156,169,104
401869.780,5755911.450,79.750,159,173,107
401869.970,5755911.770,79.660,137,167,84
401869.910,5755911.710,79.670,137,160,81
401869.850,5755911.650,79.660,142,157,89
401869.780,5755911.570,79.690,137,157,86
401869.720,5755911.500,79.720,143,167,90
401869.890,5755911.810,79.740,136,162,87
401869.830,5755911.740,79.750,139,164,89
401869.770,5755911.680,79.760,132,152,86
401869.710,5755911.610,79.760,122,149,77
401869.650,5755911.550,79.750,123,154,73
401869.590,5755911.490,79.740,122,151,75
401869.820,5755911.860,79.770,141,162,92
401869.760,5755911.790,79.770,143,163,93
401869.700,5755911.730,79.770,133,159,88
401869.650,5755911.680,79.740,117,149,74
401869.590,5755911.620,79.720,113,147,66
401869.530,5755911.560,79.710,105,139,61
401869.760,5755911.920,79.780,140,164,92
401869.700,5755911.860,79.760,127,151,78
401869.640,5755911.790,79.770,133,165,86
401869.590,5755911.740,79.740,124,160,81
401869.540,5755911.690,79.690,120,159,73
401869.480,5755911.630,79.690,120,161,74
401869.630,5755911.910,79.780,140,165,86
401869.580,5755911.850,79.770,132,161,88
401869.520,5755911.800,79.740,118,149,76
401869.470,5755911.740,79.720,119,155,72
401869.410,5755911.680,79.710,125,163,75
401869.350,5755911.620,79.710,118,157,74
401869.570,5755911.960,79.810,137,163,81
401869.510,5755911.900,79.790,132,160,86
401869.460,5755911.850,79.750,115,141,76
401869.410,5755911.800,79.720,119,145,75
401869.340,5755911.730,79.740,122,154,77
401869.290,5755911.680,79.680,119,159,70
401869.500,5755912.020,79.830,121,150,70
401869.440,5755911.950,79.850,130,156,82
401869.390,5755911.890,79.810,125,149,82
401869.330,5755911.840,79.790,135,160,87
401869.270,5755911.780,79.790,132,165,85
401869.230,5755911.740,79.710,120,160,71
401869.170,5755911.680,79.680,124,165,78
401869.390,5755912.030,79.750,126,151,77
401869.340,5755911.970,79.750,127,153,80
401869.270,5755911.910,79.750,135,162,87
401869.210,5755911.840,79.770,126,160,78
401869.140,5755911.760,79.830,120,159,71
401869.100,5755911.710,79.790,126,164,80
401869.340,5755912.100,79.720,114,137,66
401869.280,5755912.040,79.720,115,141,69
401869.220,5755911.970,79.730,125,147,75
401869.150,5755911.910,79.750,122,150,72
401869.090,5755911.840,79.750,123,159,72
401869.030,5755911.780,79.770,129,164,82
401869.210,5755912.100,79.730,115,138,69
401869.150,5755912.030,79.740,111,134,60
401869.090,5755911.960,79.760,116,141,63
401869.030,5755911.900,79.760,127,154,75
401868.960,5755911.830,79.790,130,163,84
401869.150,5755912.160,79.720,131,149,79
401869.090,5755912.090,79.730,111,132,58
401869.030,5755912.040,79.710,105,129,55
401868.960,5755911.960,79.770,127,148,80
401868.900,5755911.880,79.810,138,162,91
401868.860,5755911.840,79.750,128,156,82
401869.080,5755912.200,79.770,133,148,75
