//X,Y,Z,R,G,B
401829.380,5755929.920,77.970,61,99,84
401829.440,5755929.820,77.900,52,84,70
401829.480,5755929.750,77.930,55,87,73
401829.520,5755929.680,77.950,66,96,84
401829.560,5755929.610,77.980,62,88,79
401829.300,5755929.870,77.970,58,96,79
401829.350,5755929.780,77.940,42,78,49
401829.400,5755929.710,77.950,46,83,54
401829.440,5755929.630,77.950,67,99,82
401829.490,5755929.550,77.930,64,88,78
401829.180,5755929.890,77.920,54,86,76
401829.220,5755929.820,77.950,58,91,75
401829.270,5755929.730,77.940,54,85,59
401829.320,5755929.660,77.920,56,89,61
401829.360,5755929.580,77.930,63,93,72
401829.410,5755929.500,77.930,61,89,73
401829.100,5755929.850,77.920,51,79,71
401829.150,5755929.770,77.930,52,80,70
401829.190,5755929.680,77.910,64,91,73
401829.240,5755929.600,77.900,71,98,71
401829.290,5755929.520,77.890,65,94,69
401829.330,5755929.450,77.910,62,94,73
401829.020,5755929.800,77.930,52,80,74
401829.060,5755929.720,77.930,54,84,76
401829.110,5755929.640,77.920,65,97,85
401829.160,5755929.550,77.900,76,105,84
401829.210,5755929.480,77.890,72,104,81
401828.930,5755929.760,77.960,53,80,74
401828.980,5755929.680,77.950,56,89,80
401829.030,5755929.600,77.940,65,104,90
401829.080,5755929.510,77.910,70,107,89
401829.130,5755929.420,77.880,76,114,92
401828.850,5755929.720,77.970,57,88,76
401828.900,5755929.640,77.960,54,85,76
401828.940,5755929.560,77.970,60,92,82
401828.990,5755929.470,77.950,62,96,83
401829.040,5755929.390,77.950,70,107,88
401828.770,5755929.680,77.980,67,99,78
401828.810,5755929.590,77.970,63,92,75
401828.860,5755929.510,77.970,66,92,79
401828.910,5755929.430,77.950,68,94,80
401828.960,5755929.350,77.950,67,99,81
401828.690,5755929.630,77.960,69,99,78
401828.730,5755929.550,77.970,67,98,75
401828.780,5755929.470,77.970,69,99,78
401828.840,5755929.380,77.960,71,101,79
401828.890,5755929.300,77.940,67,98,78
401828.620,5755929.570,77.910,63,92,77
401828.670,5755929.490,77.950,64,98,77
401828.710,5755929.420,77.960,66,100,70
401828.760,5755929.330,77.950,67,101,65
401828.810,5755929.250,77.930,60,92,66
401828.500,5755929.600,77.890,66,93,75
401828.550,5755929.520,77.900,62,89,74
401828.590,5755929.440,77.920,61,87,71
401828.630,5755929.370,77.950,52,80,53
401828.680,5755929.290,77.960,61,95,52
401828.720,5755929.210,77.940,65,97,66
401828.420,5755929.550,77.900,64,88,73
401828.470,5755929.470,77.910,63,87,72
401828.510,5755929.400,77.920,66,90,74
401828.550,5755929.320,77.930,58,84,67
401828.600,5755929.240,77.960,61,90,66
401828.640,5755929.170,77.960,63,91,73
401828.330,5755929.520,77.940,64,87,73
401828.390,5755929.430,77.910,61,84,72
401828.430,5755929.350,77.930,64,88,74
401828.470,5755929.280,77.950,63,90,75
401828.510,5755929.200,77.960,63,91,78
401828.260,5755929.460,77.890,68,91,75
401828.310,5755929.380,77.900,62,86,74
401828.350,5755929.300,77.920,65,91,77
401828.390,5755929.230,77.940,70,99,84
401828.440,5755929.150,77.950,74,107,92
401828.220,5755929.340,77.920,64,87,73
401828.270,5755929.260,77.930,60,85,75
401828.310,5755929.180,77.940,69,101,86
401828.360,5755929.100,77.930,78,113,95
401828.140,5755929.290,77.920,63,87,73
401828.180,5755929.220,77.940,61,88,77
401828.230,5755929.140,77.960,80,114,94
401828.270,5755929.060,77.950,87,121,96
401828.010,5755929.330,77.940,65,88,73
401828.060,5755929.250,77.920,61,83,74
401828.100,5755929.170,77.930,67,97,84
401828.150,5755929.090,77.940,87,123,98
401828.190,5755929.010,77.950,91,123,96
401827.900,5755929.340,77.860,68,92,76
401827.940,5755929.270,77.870,75,93,79
401827.990,5755929.190,77.870,77,94,80
401828.020,5755929.120,77.930,79,106,88
401828.070,5755929.030,77.910,92,121,96
401828.110,5755928.960,77.950,88,108,86
401827.810,5755929.310,77.900,86,117,88
401827.850,5755929.230,77.910,99,122,89
401827.900,5755929.150,77.910,96,115,84
401827.940,5755929.070,77.930,97,113,84
401827.990,5755928.990,77.940,110,123,88
401827.720,5755929.270,77.930,114,153,102
401827.770,5755929.190,77.940,138,176,114
401827.820,5755929.110,77.940,134,161,104
401827.860,5755929.030,77.940,133,141,88
401827.910,5755928.950,77.940,134,137,84
401827.650,5755929.210,77.900,105,135,90
401827.690,5755929.140,77.930,134,170,106
401827.740,5755929.060,77.930,141,165,98
401827.780,5755928.980,77.940,143,154,88
401827.830,5755928.900,77.940,147,154,92
401827.560,5755929.180,77.930,91,116,81
401827.610,5755929.100,77.940,107,141,91
401827.650,5755929.020,77.940,128,158,93
401827.700,5755928.930,77.920,141,168,94
401827.750,5755928.860,77.950,150,176,110
401827.440,5755929.200,77.910,83,105,77
401827.480,5755929.120,77.930,100,127,89
401827.540,5755929.060,77.950,135,172,111
401827.580,5755928.980,77.960,159,196,125
401827.630,5755928.890,77.920,170,206,128
401827.670,5755928.810,77.950,158,194,121
401827.370,5755929.150,77.920,92,114,80
401827.410,5755929.080,77.940,101,120,83
401827.450,5755929.010,77.960,127,150,94
401827.500,5755928.940,77.980,159,182,115
401827.550,5755928.840,77.940,159,182,115
401827.590,5755928.770,77.960,151,171,101
401827.280,5755929.110,77.930,122,148,104
401827.330,5755929.040,77.950,148,162,105
401827.370,5755928.970,77.980,151,162,93
401827.420,5755928.870,77.920,152,162,92
401827.470,5755928.800,77.940,148,152,81
401827.510,5755928.730,77.980,135,141,74
401827.200,5755929.060,77.930,142,168,117
401827.250,5755928.970,77.890,140,154,102
401827.300,5755928.890,77.900,136,144,88
401827.340,5755928.830,77.920,134,142,78
401827.390,5755928.750,77.930,159,160,81
401827.120,5755929.020,77.930,128,148,101
401827.170,5755928.920,77.880,109,127,82
401827.220,5755928.840,77.890,119,135,87
401827.260,5755928.780,77.920,135,145,89
401827.310,5755928.710,77.940,142,148,85
401827.040,5755928.970,77.940,130,151,96
401827.090,5755928.880,77.890,151,176,101
401827.140,5755928.800,77.900,151,170,99
401827.180,5755928.740,77.930,152,165,100
401827.220,5755928.660,77.940,145,156,98
401826.960,5755928.930,77.940,140,171,112
401827.000,5755928.850,77.960,160,193,114
401827.060,5755928.750,77.890,159,184,101
401827.100,5755928.680,77.920,160,182,110
401827.140,5755928.620,77.950,159,181,122
401826.880,5755928.880,77.940,129,157,105
401826.920,5755928.810,77.960,155,182,103
401826.980,5755928.700,77.890,161,183,98
401827.020,5755928.630,77.900,158,180,109
401827.070,5755928.560,77.910,138,160,105
401826.760,5755928.910,77.910,117,137,97
401826.800,5755928.830,77.930,131,158,107
401826.850,5755928.740,77.900,142,169,100
401826.890,5755928.660,77.900,153,181,109
401826.940,5755928.580,77.910,155,177,117
401826.980,5755928.520,77.940,117,133,90
401826.670,5755928.870,77.930,120,154,110
401826.720,5755928.780,77.910,150,185,129
401826.770,5755928.690,77.890,148,181,119
401826.820,5755928.610,77.880,151,179,117
401826.860,5755928.530,77.880,154,170,116
401826.590,5755928.810,77.900,127,164,118
401826.640,5755928.730,77.900,152,187,131
401826.690,5755928.640,77.870,151,177,117
401826.740,5755928.560,77.870,136,150,92
401826.780,5755928.480,77.880,128,131,86
401826.510,5755928.770,77.910,154,189,134
401826.560,5755928.690,77.910,157,190,130
401826.610,5755928.600,77.880,149,172,114
401826.650,5755928.520,77.880,141,148,93
401826.700,5755928.440,77.900,132,128,84
401826.430,5755928.720,77.910,156,187,126
401826.480,5755928.630,77.880,157,192,124
401826.520,5755928.560,77.890,154,184,120
401826.570,5755928.480,77.920,147,166,104
401826.610,5755928.400,77.920,137,143,89
401826.350,5755928.680,77.910,131,155,107
401826.400,5755928.590,77.900,157,190,117
401826.460,5755928.500,77.880,150,180,110
401826.500,5755928.420,77.870,148,169,103
401826.550,5755928.350,77.900,137,145,90
401826.280,5755928.640,77.940,106,120,90
401826.320,5755928.560,77.940,131,150,100
401826.380,5755928.440,77.820,135,151,91
401826.430,5755928.350,77.800,137,147,82
401826.240,5755928.510,77.940,121,121,89
401826.290,5755928.420,77.920,130,133,86
401826.340,5755928.340,77.930,146,145,85
401826.380,5755928.260,77.930,147,137,92
401826.160,5755928.470,77.960,163,149,109
401826.200,5755928.390,77.960,163,150,106
401826.250,5755928.310,77.950,165,150,103
401826.070,5755928.460,78.060,185,169,123
401826.110,5755928.390,78.090,180,162,116
401826.170,5755928.280,78.010,175,155,112
401826.070,5755928.280,78.150,189,172,127
401826.120,5755928.180,78.110,198,176,134
401826.030,5755928.170,78.200,202,182,138
401825.130,5755928.220,79.470,92,128,62
401825.170,5755928.170,79.510,85,119,55
401825.210,5755928.090,79.500,94,127,64
401825.050,5755928.190,79.500,100,138,74
401825.090,5755928.140,79.550,83,120,58
401825.130,5755928.080,79.600,92,129,69
401824.970,5755928.170,79.570,113,149,86
401825.010,5755928.100,79.590,103,142,77
401825.050,5755928.040,79.620,100,139,75
401825.090,5755927.980,79.680,96,132,70
401824.890,5755928.140,79.630,123,157,92
401824.930,5755928.070,79.650,112,148,82
401824.970,5755928.020,79.690,95,132,70
401825.010,5755927.960,79.730,86,121,63
401825.050,5755927.900,79.800,99,130,81
401824.810,5755928.120,79.710,121,157,90
401824.850,5755928.070,79.740,103,139,72
401824.890,5755928.010,79.780,88,124,64
401824.940,5755927.950,79.820,83,117,64
401824.740,5755928.110,79.800,113,147,82
401824.780,5755928.040,79.790,90,124,64
401824.820,5755927.980,79.840,63,99,46
401824.860,5755927.910,79.860,59,94,47
401824.700,5755928.000,79.830,79,114,56
401824.740,5755927.940,79.840,52,88,39
401824.780,5755927.880,79.900,59,95,47
401824.830,5755927.810,79.900,80,116,61
401824.580,5755928.050,79.880,92,129,67
401824.620,5755927.970,79.870,103,138,74
401824.670,5755927.910,79.890,82,118,60
401824.710,5755927.860,79.950,82,120,63
401824.550,5755927.930,79.890,116,150,85
401824.590,5755927.870,79.890,91,125,66
401824.630,5755927.800,79.900,86,125,68
401824.670,5755927.740,79.970,91,129,72
401824.720,5755927.670,79.990,99,135,76
401824.430,5755927.980,79.940,120,154,92
401824.470,5755927.900,79.930,129,159,98
401824.510,5755927.860,79.990,108,141,85
401824.350,5755927.950,79.970,99,131,76
401824.390,5755927.890,80.000,106,137,81
401824.520,5755927.690,80.050,105,140,80
401824.560,5755927.600,80.020,116,148,86
401824.270,5755927.920,80.010,80,114,58
401824.310,5755927.860,80.060,77,113,59
401824.120,5755927.860,80.080,82,121,66
401824.330,5755927.500,80.110,113,151,84
401824.040,5755927.820,80.080,83,124,67
401824.090,5755927.750,80.100,99,138,79
401824.130,5755927.680,80.110,116,154,88
401824.170,5755927.620,80.120,117,154,84
401824.210,5755927.530,80.090,108,144,78
401824.260,5755927.450,80.090,109,147,80
401823.970,5755927.780,80.090,94,134,73
401824.010,5755927.710,80.100,95,133,72
401824.050,5755927.640,80.120,108,144,82
401824.100,5755927.580,80.130,110,144,80
401824.140,5755927.500,80.120,112,144,82
401824.180,5755927.430,80.130,117,151,87
401823.930,5755927.660,80.100,97,135,70
401823.980,5755927.600,80.120,99,133,72
401824.020,5755927.520,80.120,85,120,59
401824.070,5755927.460,80.130,97,130,70
401824.110,5755927.390,80.150,107,141,77
401823.910,5755927.560,80.150,97,132,73
401823.950,5755927.480,80.140,97,131,71
401824.000,5755927.420,80.140,89,124,64
401824.040,5755927.350,80.150,87,124,64
401823.920,5755927.380,80.150,92,127,66
401823.960,5755927.310,80.170,101,137,78
401823.370,5755927.460,80.160,115,145,82
401823.420,5755927.350,80.060,122,152,88
401823.460,5755927.290,80.110,106,138,76
401823.500,5755927.240,80.170,94,125,67
401823.340,5755927.320,80.100,126,154,90
401823.380,5755927.250,80.130,113,144,82
401823.430,5755927.180,80.140,101,133,73
401823.470,5755927.110,80.130,100,134,74
401823.130,5755927.460,79.990,97,126,64
401823.180,5755927.430,80.120,107,135,70
401823.260,5755927.270,80.090,130,154,85
401823.310,5755927.220,80.140,123,149,81
401823.350,5755927.140,80.130,100,129,68
401823.060,5755927.410,79.950,84,113,53
401823.100,5755927.370,80.070,112,136,77
401823.150,5755927.310,80.100,132,148,84
401823.190,5755927.230,80.100,127,145,77
401823.230,5755927.170,80.140,132,150,83
401823.270,5755927.090,80.110,118,140,78
401822.980,5755927.380,80.010,112,136,74
401823.030,5755927.320,80.040,124,144,80
401823.070,5755927.270,80.120,130,148,81
401823.110,5755927.180,80.070,127,145,76
401823.160,5755927.110,80.100,135,149,80
401823.200,5755927.010,80.050,132,144,79
401822.910,5755927.340,80.000,133,151,82
401822.950,5755927.270,80.040,132,148,77
401822.990,5755927.210,80.090,131,146,79
401823.040,5755927.120,80.040,129,147,77
401823.080,5755927.050,80.050,125,143,74
401822.830,5755927.290,80.000,136,151,82
401822.870,5755927.180,79.910,128,141,75
401822.920,5755927.130,79.970,121,134,73
401822.960,5755927.030,79.920,123,137,71
401823.000,5755926.970,79.970,125,140,73
401822.750,5755927.250,80.010,143,153,90
401822.790,5755927.120,79.860,140,151,93
401822.840,5755927.050,79.880,128,142,85
401822.880,5755926.980,79.900,106,119,59
401822.930,5755926.910,79.930,99,109,52
401822.680,5755927.210,80.020,136,148,82
401822.720,5755927.070,79.860,140,152,90
401822.760,5755927.000,79.870,118,132,72
401822.820,5755926.930,79.880,105,119,62
401822.860,5755926.860,79.910,85,99,48
401822.560,5755927.220,79.970,128,140,72
401822.610,5755927.160,79.990,137,148,81
401822.650,5755927.040,79.880,129,145,79
401822.700,5755926.960,79.890,117,134,71
401822.740,5755926.890,79.900,109,123,64
401822.780,5755926.830,79.920,82,96,46
401822.530,5755927.090,79.930,132,146,76
401822.580,5755926.980,79.840,131,146,77
401822.620,5755926.910,79.860,118,136,70
401822.660,5755926.840,79.870,109,124,61
401822.370,5755927.140,79.810,123,142,72
401822.410,5755927.100,79.890,121,139,68
401822.460,5755927.000,79.830,121,139,68
401822.500,5755926.940,79.850,131,146,75
401822.540,5755926.870,79.870,116,131,63
401822.590,5755926.790,79.860,94,111,50
401822.290,5755927.110,79.840,125,143,72
401822.340,5755927.040,79.840,125,144,73
401822.380,5755926.960,79.850,116,132,62
401822.420,5755926.890,79.850,121,134,71
401822.470,5755926.820,79.860,115,125,66
401822.510,5755926.740,79.840,92,105,50
401822.210,5755927.040,79.760,117,136,65
401822.260,5755926.970,79.770,121,143,71
401822.300,5755926.900,79.790,104,123,54
401822.340,5755926.820,79.780,94,108,47
401822.390,5755926.750,79.790,107,115,58
401822.090,5755927.020,79.640,134,149,77
401822.130,5755926.950,79.650,121,139,69
401822.180,5755926.880,79.650,118,138,65
401822.220,5755926.810,79.680,96,116,41
401822.260,5755926.740,79.700,91,112,39
401822.310,5755926.670,79.720,101,120,51
401822.010,5755926.950,79.570,155,168,92
401822.050,5755926.870,79.560,139,153,82
401822.090,5755926.790,79.530,115,132,58
401822.140,5755926.740,79.610,95,117,37
401822.190,5755926.690,79.670,102,125,47
401822.230,5755926.600,79.650,117,137,64
401821.930,5755926.900,79.550,153,169,86
401821.970,5755926.810,79.520,137,155,77
401822.020,5755926.740,79.530,113,134,55
401822.060,5755926.670,79.560,111,136,56
401822.110,5755926.610,79.600,112,136,60
401821.810,5755926.940,79.550,142,161,71
401821.850,5755926.840,79.510,137,158,70
401821.890,5755926.760,79.500,125,148,63
401821.940,5755926.690,79.510,117,141,59
401821.980,5755926.620,79.550,125,150,72
401822.030,5755926.560,79.580,127,152,76
401821.730,5755926.900,79.580,130,153,68
401821.770,5755926.800,79.520,124,148,63
401821.820,5755926.720,79.510,115,139,53
401821.860,5755926.650,79.520,117,142,59
401821.910,5755926.580,79.550,124,150,70
401821.950,5755926.510,79.570,130,159,78
401821.650,5755926.830,79.510,134,155,75
401821.700,5755926.760,79.520,128,152,69
401821.740,5755926.690,79.550,112,138,54
401821.790,5755926.620,79.550,107,138,50
401821.830,5755926.540,79.560,121,151,66
401821.870,5755926.470,79.580,130,158,73
401821.570,5755926.780,79.500,113,136,58
401821.620,5755926.710,79.530,124,147,68
401821.660,5755926.650,79.560,122,149,67
401821.710,5755926.580,79.570,118,152,68
401821.750,5755926.500,79.570,133,161,80
401821.800,5755926.430,79.580,136,161,81
401821.450,5755926.790,79.450,129,151,70
401821.500,5755926.730,79.470,112,135,56
401821.540,5755926.660,79.500,118,144,66
401821.590,5755926.600,79.550,127,156,77
401821.630,5755926.530,79.560,134,164,83
401821.670,5755926.440,79.540,149,171,96
401821.370,5755926.760,79.460,136,158,80
401821.420,5755926.690,79.500,118,141,68
401821.460,5755926.610,79.490,125,156,78
401821.510,5755926.550,79.520,143,172,90
401821.550,5755926.480,79.550,145,169,89
401821.600,5755926.390,79.510,151,169,98
401821.300,5755926.720,79.470,137,162,88
401821.340,5755926.630,79.460,130,152,85
401821.380,5755926.530,79.390,137,161,90
401821.430,5755926.470,79.440,142,166,88
401821.480,5755926.420,79.500,147,166,88
401821.220,5755926.670,79.470,135,156,85
401821.270,5755926.590,79.470,146,161,95
401821.310,5755926.470,79.340,141,157,89
401821.360,5755926.410,79.400,133,151,78
401821.400,5755926.340,79.420,125,144,70
401821.160,5755926.670,79.570,139,156,86
401821.200,5755926.550,79.470,146,157,88
401821.240,5755926.480,79.490,136,149,80
401821.280,5755926.400,79.470,128,143,74
401821.330,5755926.310,79.450,112,131,58
401821.080,5755926.600,79.550,152,167,93
401821.120,5755926.530,79.540,147,158,89
401821.160,5755926.430,79.470,131,141,76
401821.200,5755926.330,79.410,125,137,72
401821.240,5755926.230,79.370,127,140,72
401821.000,5755926.550,79.530,152,166,89
401821.040,5755926.470,79.490,152,164,92
401821.080,5755926.370,79.420,145,153,92
401821.120,5755926.270,79.370,144,152,91
401821.160,5755926.170,79.310,146,153,86
401820.920,5755926.500,79.510,154,167,90
401820.960,5755926.400,79.440,145,156,79
401821.000,5755926.310,79.390,140,147,79
401821.050,5755926.240,79.410,154,161,96
401821.090,5755926.170,79.420,156,160,93
401820.800,5755926.530,79.490,172,186,105
401820.850,5755926.450,79.500,167,178,99
401820.880,5755926.360,79.450,145,153,80
401820.920,5755926.250,79.370,131,142,71
401820.970,5755926.190,79.400,147,159,85
401821.010,5755926.110,79.390,155,162,90
401820.720,5755926.480,79.490,171,185,103
401820.770,5755926.400,79.480,166,180,99
401820.810,5755926.310,79.440,137,149,77
401820.850,5755926.220,79.410,132,148,74
401820.890,5755926.140,79.390,140,156,77
401820.650,5755926.450,79.520,165,181,97
401820.690,5755926.370,79.520,156,174,92
401820.730,5755926.280,79.480,141,160,82
401820.780,5755926.210,79.490,133,154,72
401820.820,5755926.140,79.500,127,148,64
401820.860,5755926.050,79.470,129,151,68
401820.620,5755926.330,79.530,155,173,89
401820.660,5755926.240,79.500,144,166,79
401820.700,5755926.180,79.520,124,146,60
401820.750,5755926.120,79.540,113,134,52
401820.590,5755926.010,79.530,146,170,84
401820.520,5755925.980,79.560,144,168,78
401820.440,5755925.930,79.550,160,180,89
401820.140,5755926.260,79.520,115,141,60
401820.060,5755926.210,79.500,107,128,55
401820.120,5755926.150,79.550,126,148,72
401819.990,5755926.140,79.440,122,134,61
401820.040,5755926.090,79.500,133,147,69
401820.180,5755925.880,79.570,128,147,84
401819.860,5755926.150,79.380,131,149,77
401819.910,5755926.080,79.410,139,152,77
401819.960,5755926.030,79.460,150,163,85
401820.010,5755925.980,79.540,143,157,80
401820.060,5755925.920,79.570,125,140,71
401820.100,5755925.840,79.570,118,134,71
401819.780,5755926.110,79.400,137,159,84
401819.830,5755926.040,79.410,142,160,84
401819.870,5755925.970,79.430,154,172,94
401819.920,5755925.900,79.460,147,165,85
401819.980,5755925.860,79.540,127,146,71
401820.020,5755925.780,79.540,126,141,72
401819.760,5755926.030,79.490,132,155,76
401819.800,5755925.940,79.460,138,164,84
401819.850,5755925.860,79.470,143,166,86
401819.890,5755925.790,79.480,132,152,75
401819.940,5755925.720,79.480,124,143,70
401819.640,5755926.070,79.520,137,160,75
401819.690,5755926.010,79.550,132,157,72
401819.730,5755925.920,79.510,130,158,70
401819.770,5755925.820,79.460,143,167,82
401819.810,5755925.750,79.480,146,165,86
401819.860,5755925.680,79.500,143,164,90
401819.570,5755926.040,79.540,142,167,79
401819.650,5755925.860,79.490,133,160,69
401819.690,5755925.790,79.490,140,166,77
401819.740,5755925.720,79.520,154,176,93
401819.780,5755925.640,79.510,162,181,100
401819.480,5755925.970,79.480,133,159,69
401819.530,5755925.890,79.470,132,156,71
401819.570,5755925.800,79.460,136,161,74
401819.610,5755925.720,79.440,142,167,77
401819.660,5755925.660,79.480,153,177,92
401819.700,5755925.590,79.490,159,178,97
401819.400,5755925.910,79.440,129,155,67
401819.450,5755925.830,79.450,126,149,64
401819.490,5755925.750,79.440,131,152,67
401819.530,5755925.680,79.440,135,158,72
401819.580,5755925.610,79.470,147,171,87
401819.320,5755925.840,79.390,134,156,73
401819.360,5755925.780,79.420,130,149,64
401819.410,5755925.700,79.430,122,141,58
401819.450,5755925.620,79.410,119,140,59
401819.500,5755925.550,79.430,135,158,77
401819.200,5755925.880,79.430,148,161,80
401819.240,5755925.790,79.380,152,164,88
401819.280,5755925.730,79.410,144,157,77
401819.330,5755925.660,79.430,114,131,56
401819.380,5755925.580,79.430,107,128,55
401819.420,5755925.520,79.460,139,159,79
401819.110,5755925.810,79.360,147,150,82
401819.160,5755925.730,79.360,147,155,87
401819.210,5755925.680,79.390,153,165,93
401819.250,5755925.610,79.420,117,133,62
401819.300,5755925.540,79.430,106,123,52
401819.350,5755925.480,79.470,140,158,77
401819.040,5755925.780,79.400,128,135,72
401819.080,5755925.700,79.390,132,143,78
401819.130,5755925.640,79.410,150,165,95
401819.180,5755925.570,79.430,137,154,79
401819.220,5755925.500,79.460,120,134,58
401819.270,5755925.440,79.490,125,142,59
401818.960,5755925.740,79.390,129,138,75
401819.010,5755925.660,79.400,128,141,75
401819.050,5755925.590,79.400,136,156,82
401819.110,5755925.520,79.410,132,151,73
401819.150,5755925.450,79.440,113,129,53
401819.200,5755925.380,79.470,111,128,51
401818.890,5755925.700,79.420,148,161,89
401818.940,5755925.620,79.410,143,160,85
401818.990,5755925.550,79.420,140,161,81
401819.030,5755925.480,79.430,128,146,67
401819.080,5755925.410,79.450,104,121,49
401818.820,5755925.660,79.430,168,181,100
401818.860,5755925.570,79.400,158,174,92
401818.910,5755925.490,79.400,154,173,89
401818.950,5755925.430,79.420,141,157,76
401819.000,5755925.360,79.440,118,134,61
401818.750,5755925.630,79.480,170,184,97
401818.790,5755925.540,79.450,168,182,96
401818.830,5755925.470,79.450,160,177,90
401818.870,5755925.390,79.430,149,166,81
401818.920,5755925.320,79.440,143,160,78
401818.630,5755925.660,79.470,150,166,76
401818.670,5755925.590,79.480,166,181,93
401818.720,5755925.530,79.510,168,184,96
401818.770,5755925.450,79.520,156,174,85
401818.810,5755925.380,79.500,150,168,83
401818.860,5755925.310,79.530,147,162,79
401818.610,5755925.570,79.540,162,178,90
401818.660,5755925.510,79.570,165,181,92
401818.740,5755925.360,79.570,152,170,82
401818.790,5755925.290,79.590,148,161,77
401818.530,5755925.530,79.550,149,165,75
401818.580,5755925.470,79.580,154,165,79
401818.630,5755925.400,79.610,151,164,78
401818.660,5755925.310,79.560,150,164,79
401818.710,5755925.250,79.580,144,158,73
401818.410,5755925.570,79.550,145,158,72
401818.460,5755925.490,79.570,144,157,73
401818.500,5755925.430,79.590,141,150,69
401818.550,5755925.360,79.610,137,148,68
401818.590,5755925.290,79.610,142,155,73
401818.340,5755925.540,79.590,151,163,78
401818.380,5755925.460,79.590,147,160,78
401818.430,5755925.390,79.610,136,153,70
401818.480,5755925.330,79.630,137,155,74
401818.520,5755925.250,79.630,140,156,71
401818.260,5755925.490,79.590,152,166,77
401818.310,5755925.420,79.600,154,170,79
401818.350,5755925.350,79.610,142,163,71
401818.400,5755925.280,79.640,147,168,78
401818.450,5755925.210,79.650,150,168,81
401818.490,5755925.150,79.660,152,172,84
401818.190,5755925.460,79.600,141,159,64
401818.230,5755925.380,79.620,139,162,64
401818.280,5755925.310,79.620,140,165,69
401818.330,5755925.250,79.650,145,168,72
401818.370,5755925.170,79.660,147,168,75
401818.110,5755925.400,79.580,130,153,61
401818.150,5755925.330,79.580,127,153,55
401818.200,5755925.250,79.590,134,160,61
401818.250,5755925.200,79.650,142,166,68
401818.300,5755925.130,79.660,148,169,77
401818.030,5755925.370,79.620,126,153,57
401818.080,5755925.300,79.620,123,149,51
401818.130,5755925.230,79.630,128,152,52
401817.960,5755925.340,79.630,134,161,62
401818.000,5755925.260,79.630,128,154,56
401817.890,5755925.300,79.640,130,157,58
401817.930,5755925.210,79.630,139,165,63
401817.810,5755925.230,79.590,137,162,66
401817.690,5755925.270,79.610,140,165,77
401817.740,5755925.200,79.620,146,167,76
401817.790,5755925.140,79.660,137,157,67
401817.830,5755925.060,79.650,143,165,74
401817.880,5755924.990,79.660,152,174,80
401817.920,5755924.920,79.680,154,176,79
401817.610,5755925.210,79.570,149,170,84
401817.650,5755925.140,79.580,150,165,84
401817.710,5755925.090,79.640,137,154,74
401817.740,5755924.990,79.600,133,152,70
401817.790,5755924.920,79.610,148,168,80
401817.840,5755924.860,79.640,155,176,80
401817.540,5755925.180,79.610,154,171,90
401817.590,5755925.120,79.640,148,162,84
401817.620,5755925.020,79.590,133,149,70
401817.670,5755924.950,79.590,122,144,64
401817.710,5755924.870,79.600,135,157,74
401817.760,5755924.820,79.650,147,170,77
401817.460,5755925.150,79.630,141,163,81
401817.510,5755925.080,79.640,141,160,78
401817.560,5755925.000,79.650,123,143,61
401817.590,5755924.900,79.590,121,145,68
401817.640,5755924.850,79.660,131,155,75
401817.690,5755924.780,79.670,141,166,76
401817.400,5755925.120,79.670,135,159,79
401817.440,5755925.050,79.680,132,155,75
401817.490,5755924.980,79.690,119,141,63
401817.520,5755924.880,79.640,124,147,73
401817.580,5755924.830,79.710,120,145,66
401817.620,5755924.760,79.720,125,151,67
401817.410,5755924.940,79.710,122,149,75
401817.460,5755924.870,79.710,118,143,68
401817.510,5755924.800,79.740,113,139,62
401817.550,5755924.740,79.770,115,141,63
401817.240,5755925.020,79.650,130,160,83
401817.280,5755924.960,79.680,131,156,82
401817.320,5755924.860,79.640,123,151,75
401817.390,5755924.840,79.750,113,141,65
401817.480,5755924.700,79.790,123,146,65
401817.110,5755925.040,79.610,117,142,65
401817.150,5755924.960,79.620,124,153,73
401817.200,5755924.900,79.640,126,153,72
401817.260,5755924.850,79.700,122,150,71
401817.020,5755924.970,79.550,106,131,64
401817.070,5755924.900,79.580,135,159,84
401817.120,5755924.840,79.610,144,163,81
401817.180,5755924.800,79.700,130,155,76
401816.940,5755924.920,79.560,109,134,69
401817.000,5755924.870,79.610,133,154,79
401817.050,5755924.810,79.640,143,158,75
401817.110,5755924.770,79.710,136,160,79
401816.870,5755924.900,79.610,103,127,57
401816.920,5755924.840,79.640,108,130,54
401816.980,5755924.790,79.700,111,132,55
401817.040,5755924.740,79.750,124,151,71
401817.090,5755924.670,79.780,127,157,69
401816.800,5755924.850,79.620,98,121,49
401816.860,5755924.820,79.700,88,114,42
401816.920,5755924.780,79.770,87,114,43
401816.740,5755924.850,79.710,95,116,51
401816.790,5755924.800,79.740,84,112,43
401816.850,5755924.740,79.770,86,115,44
401816.680,5755924.820,79.730,82,107,43
401816.730,5755924.760,79.750,80,109,41
401816.780,5755924.700,79.780,89,117,46
401816.880,5755924.570,79.830,88,117,41
401816.920,5755924.490,79.840,112,143,64
401816.540,5755924.820,79.660,111,135,69
401816.600,5755924.770,79.720,89,119,53
401816.650,5755924.720,79.760,91,119,53
401816.700,5755924.650,79.780,93,122,50
401816.750,5755924.590,79.810,95,122,49
401816.790,5755924.510,79.800,100,127,56
401816.840,5755924.440,79.820,117,149,72
401816.470,5755924.790,79.680,121,144,74
401816.520,5755924.720,79.710,107,135,63
401816.570,5755924.670,79.740,101,131,58
401816.620,5755924.600,79.770,102,133,57
401816.670,5755924.540,79.790,110,138,59
401816.710,5755924.460,79.790,118,145,69
401816.760,5755924.400,79.810,127,156,77
401816.400,5755924.750,79.700,121,149,72
401816.450,5755924.680,79.720,115,145,66
401816.500,5755924.620,79.760,120,150,66
401816.550,5755924.570,79.780,122,152,69
401816.600,5755924.500,79.800,125,152,68
401816.640,5755924.420,79.790,134,159,78
401816.330,5755924.720,79.740,122,152,77
401816.370,5755924.640,79.730,126,155,76
401816.420,5755924.580,79.750,133,159,73
401816.470,5755924.520,79.780,140,162,81
401816.520,5755924.460,79.810,129,153,71
401816.570,5755924.390,79.830,129,157,74
401816.270,5755924.700,79.790,127,158,85
401816.300,5755924.600,79.740,135,166,87
401816.350,5755924.540,79.770,130,158,74
401816.400,5755924.500,79.820,143,164,86
401816.500,5755924.350,79.840,130,157,74
401816.180,5755924.640,79.750,141,171,93
401816.220,5755924.570,79.750,139,170,89
401816.270,5755924.500,79.780,121,152,69
401816.330,5755924.460,79.840,132,157,76
401816.110,5755924.610,79.790,149,176,93
401816.150,5755924.520,79.750,151,176,94
401816.190,5755924.450,79.760,137,163,84
401816.250,5755924.390,79.800,132,159,80
401816.290,5755924.330,79.810,143,168,91
401816.340,5755924.260,79.840,147,172,93
401816.050,5755924.590,79.840,152,179,91
401816.090,5755924.520,79.840,155,180,92
401816.120,5755924.400,79.760,148,167,87
401816.160,5755924.340,79.780,144,166,86
401816.210,5755924.270,79.780,157,181,99
401816.260,5755924.200,79.800,151,176,89
401815.990,5755924.420,79.730,149,173,87
401816.040,5755924.350,79.740,143,165,83
401816.080,5755924.280,79.760,145,167,87
401816.130,5755924.210,79.760,159,182,97
401815.920,5755924.390,79.750,137,161,85
401815.960,5755924.310,79.750,139,163,87
401816.010,5755924.240,79.770,156,176,101
401816.050,5755924.160,79.760,159,180,100
401815.810,5755924.460,79.820,140,162,96
401815.850,5755924.360,79.780,131,155,89
401815.890,5755924.280,79.770,141,164,99
401815.940,5755924.210,79.790,158,179,108
401815.980,5755924.140,79.810,153,175,95
401815.730,5755924.400,79.800,144,168,101
401815.780,5755924.330,79.810,136,156,90
401815.830,5755924.260,79.830,131,152,85
401815.870,5755924.170,79.810,148,170,97
401815.660,5755924.370,79.820,146,169,94
401815.720,5755924.310,79.850,137,159,87
401815.770,5755924.240,79.890,133,155,84
401815.800,5755924.140,79.830,132,154,77
401815.560,5755924.420,79.860,121,150,72
401815.610,5755924.350,79.870,135,161,78
401815.680,5755924.170,79.840,144,165,88
401815.730,5755924.100,79.840,132,152,76
401815.490,5755924.380,79.870,125,157,82
401815.530,5755924.310,79.890,119,148,65
401815.600,5755924.120,79.830,130,159,66
401815.650,5755924.060,79.840,133,158,77
401815.420,5755924.350,79.910,116,150,70
401815.460,5755924.270,79.910,102,137,54
401815.530,5755924.080,79.820,111,142,51
401815.580,5755924.030,79.870,125,155,67
401815.340,5755924.300,79.900,96,133,53
401815.380,5755924.230,79.900,90,129,50
401815.410,5755924.130,79.850,99,135,56
401815.460,5755924.050,79.860,99,131,47
401815.490,5755923.950,79.810,117,151,62
401815.250,5755924.230,79.840,90,131,56
401815.300,5755924.180,79.890,99,138,63
401815.350,5755924.110,79.900,108,144,70
401815.390,5755924.030,79.900,110,147,70
401815.420,5755923.930,79.860,116,155,69
401815.160,5755924.170,79.810,108,149,73
401815.210,5755924.100,79.810,115,152,73
401815.240,5755924.000,79.780,116,152,76
401815.320,5755923.990,79.900,123,160,81
401815.360,5755923.910,79.910,121,162,76
401815.100,5755924.160,79.870,109,150,75
401815.140,5755924.080,79.860,115,157,78
401815.180,5755923.980,79.830,125,165,84
401815.250,5755923.960,79.940,129,166,83
401815.290,5755923.880,79.920,128,166,82
401815.030,5755924.130,79.900,109,152,81
401815.100,5755924.090,79.980,122,163,88
401815.140,5755924.010,79.970,129,171,91
401815.180,5755923.930,79.970,125,165,81
401815.220,5755923.850,79.950,125,167,82
401814.980,5755924.120,79.970,109,150,80
401814.850,5755924.140,79.950,109,148,81
401814.880,5755924.040,79.890,112,153,88
401814.810,5755924.010,79.930,109,151,84
401814.960,5755923.820,80.000,111,155,83
401815.010,5755923.750,80.020,119,165,90
401814.750,5755924.000,79.990,114,157,87
401814.890,5755923.770,80.000,117,159,92
401814.940,5755923.710,80.030,125,168,96
401814.820,5755923.730,80.010,113,156,87
401814.870,5755923.670,80.040,117,158,86
401814.760,5755923.710,80.060,120,161,87
401814.800,5755923.640,80.060,105,143,66
401814.690,5755923.690,80.090,122,164,78
401814.730,5755923.600,80.080,97,137,51
401814.450,5755923.950,80.100,125,166,92
401814.620,5755923.650,80.100,129,171,81
401814.660,5755923.570,80.100,100,142,58
401814.370,5755923.900,80.080,120,158,82
401814.400,5755923.810,80.060,110,148,69
401814.470,5755923.780,80.140,87,127,50
401814.510,5755923.700,80.140,111,152,67
401814.560,5755923.630,80.140,126,167,76
401814.600,5755923.550,80.130,109,151,69
401814.330,5755923.780,80.080,104,142,73
401814.390,5755923.730,80.130,96,137,69
401814.440,5755923.660,80.150,105,146,76
401814.480,5755923.590,80.150,102,144,69
401814.360,5755923.620,80.150,115,155,85
401814.340,5755923.510,80.170,97,135,67
401825.970,5755928.380,78.190,171,150,97
401826.010,5755928.540,78.020,162,140,82
401826.030,5755928.340,78.140,168,148,95
401826.070,5755928.490,78.000,163,139,82
401826.120,5755928.590,77.930,142,119,63
401826.180,5755928.670,77.920,98,89,47
401826.050,5755928.150,78.250,170,157,104
401826.080,5755928.310,78.080,168,147,92
401826.130,5755928.430,77.980,152,129,73
401826.190,5755928.520,77.930,124,108,56
401826.250,5755928.600,77.910,90,94,47
401826.310,5755928.660,77.920,108,124,55
401826.380,5755928.710,77.940,120,142,60
401826.440,5755928.780,77.930,119,148,62
401826.140,5755928.260,78.050,168,143,89
401826.200,5755928.360,77.980,135,116,61
401826.250,5755928.460,77.930,116,116,51
401826.320,5755928.530,77.920,101,114,43
401826.390,5755928.580,77.940,117,147,53
401826.450,5755928.630,77.970,121,154,57
401826.520,5755928.670,78.010,118,151,62
401826.650,5755928.830,77.960,112,142,67
401826.720,5755928.890,77.970,105,122,56
401826.200,5755928.210,78.020,162,135,84
401826.260,5755928.310,77.960,126,109,53
401826.320,5755928.390,77.930,111,113,43
401826.380,5755928.470,77.910,110,122,47
401826.450,5755928.520,77.940,114,140,54
401826.510,5755928.580,77.940,114,142,54
401826.580,5755928.650,77.940,112,135,58
401826.640,5755928.710,77.940,112,144,60
401826.710,5755928.760,77.960,113,150,63
401826.780,5755928.830,77.970,103,127,51
401826.920,5755928.940,78.000,96,116,44
401826.990,5755929.000,78.000,93,108,46
401826.330,5755928.240,77.980,137,113,58
401826.390,5755928.320,77.940,107,98,41
401826.450,5755928.380,77.950,102,109,48
401826.520,5755928.440,77.960,115,132,56
401826.580,5755928.490,77.980,113,125,52
401826.640,5755928.580,77.940,114,119,51
401826.710,5755928.640,77.940,112,133,54
401826.780,5755928.700,77.960,113,144,54
401826.850,5755928.760,77.970,115,138,49
401827.050,5755928.950,77.990,110,120,42
401827.110,5755929.020,77.980,99,117,52
401827.180,5755929.090,77.970,113,134,58
401826.590,5755928.380,77.960,113,115,48
401826.640,5755928.440,77.950,112,106,45
401826.710,5755928.510,77.950,109,104,43
401826.780,5755928.570,77.960,112,126,52
401826.850,5755928.620,77.990,121,147,56
401826.920,5755928.670,78.000,124,147,52
401827.050,5755928.810,77.990,131,151,44
401827.110,5755928.890,77.970,112,121,42
401827.180,5755928.960,77.970,81,93,44
401827.240,5755929.030,77.960,111,129,55
401827.310,5755929.090,77.960,91,105,42
401827.380,5755929.160,77.960,65,80,40
401826.780,5755928.430,77.960,98,101,42
401826.850,5755928.490,77.980,105,117,47
401827.050,5755928.690,77.980,123,150,53
401827.110,5755928.750,77.980,124,139,48
401827.180,5755928.820,77.970,109,113,44
401827.240,5755928.900,77.960,95,99,44
401827.310,5755928.960,77.960,122,128,49
401827.380,5755929.030,77.960,96,104,36
401827.440,5755929.100,77.950,76,92,38
401827.490,5755929.170,77.940,71,87,39
401827.560,5755929.240,77.930,58,75,37
401827.040,5755928.580,77.950,109,129,49
401827.110,5755928.640,77.960,115,140,49
401827.180,5755928.700,77.980,117,126,42
401827.240,5755928.770,77.970,115,117,40
401827.310,5755928.840,77.960,118,114,39
401827.370,5755928.900,77.960,129,128,45
401827.440,5755928.970,77.950,110,124,44
401827.510,5755929.030,77.960,109,137,47
401827.560,5755929.110,77.950,90,113,38
401827.630,5755929.180,77.940,87,111,38
401827.690,5755929.250,77.940,96,127,42
401827.760,5755929.320,77.910,70,97,43
401827.170,5755928.580,77.950,110,137,55
401827.240,5755928.630,77.980,109,121,40
401827.310,5755928.700,77.980,118,121,41
401827.370,5755928.770,77.970,133,127,38
401827.440,5755928.840,77.960,126,127,42
401827.510,5755928.900,77.960,123,148,59
401827.570,5755928.960,77.970,131,168,63
401827.630,5755929.040,77.960,106,126,42
401827.690,5755929.130,77.920,107,129,42
401827.760,5755929.190,77.920,102,134,44
401827.820,5755929.270,77.890,70,89,43
401827.890,5755929.330,77.900,50,63,43
401827.960,5755929.370,77.940,43,57,40
401827.440,5755928.700,77.980,114,116,36
401827.510,5755928.760,77.990,107,115,46
401827.570,5755928.830,77.970,121,150,56
401827.640,5755928.910,77.960,126,162,53
401827.690,5755928.990,77.930,118,134,46
401827.750,5755929.070,77.900,115,125,45
401827.820,5755929.140,77.900,90,105,42
401827.880,5755929.220,77.880,62,76,43
401827.950,5755929.260,77.910,50,62,43
401828.030,5755929.290,77.960,40,52,39
401828.090,5755929.370,77.940,46,61,44
401828.160,5755929.430,77.960,50,66,46
401828.220,5755929.510,77.940,46,62,43
401827.640,5755928.770,77.970,120,147,57
401827.710,5755928.830,77.970,115,147,54
401827.760,5755928.920,77.930,114,130,52
401827.830,5755928.980,77.950,114,117,47
401827.890,5755929.050,77.940,86,90,42
401827.960,5755929.110,77.950,58,77,43
401828.030,5755929.160,77.960,46,66,42
401828.090,5755929.230,77.950,38,52,39
401828.160,5755929.300,77.950,37,52,39
401828.220,5755929.360,77.960,40,56,39
401828.290,5755929.440,77.940,39,55,37
401828.350,5755929.510,77.930,39,56,38
401828.420,5755929.580,77.920,43,60,41
401827.820,5755928.850,77.950,110,116,52
401827.890,5755928.910,77.950,105,106,44
401827.960,5755928.980,77.940,87,91,42
401828.020,5755929.040,77.950,60,83,47
401828.090,5755929.090,77.970,52,85,48
401828.160,5755929.160,77.970,48,72,45
401828.230,5755929.230,77.960,35,53,38
401828.290,5755929.290,77.960,41,58,42
401828.360,5755929.370,77.940,41,56,40
401828.420,5755929.440,77.930,42,57,40
401828.490,5755929.510,77.930,42,60,41
401828.560,5755929.550,77.970,41,61,42
401828.610,5755929.610,77.980,45,67,47
401828.680,5755929.680,77.980,49,71,50
401828.020,5755928.920,77.940,91,91,43
401828.090,5755928.980,77.950,55,70,43
401828.160,5755929.030,77.960,54,90,49
401828.220,5755929.090,77.960,54,86,49
401828.290,5755929.160,77.970,46,71,47
401828.360,5755929.220,77.980,46,66,47
401828.420,5755929.290,77.960,44,59,42
401828.490,5755929.350,77.970,44,61,41
401828.560,5755929.420,77.970,42,64,41
401828.620,5755929.480,77.970,45,70,46
401828.680,5755929.550,77.970,45,68,45
401828.750,5755929.610,77.970,47,68,46
401828.810,5755929.690,77.960,40,60,42
401828.880,5755929.750,77.970,31,51,38
401828.290,5755929.040,77.950,56,84,50
401828.360,5755929.100,77.960,50,79,52
401828.420,5755929.160,77.960,46,71,50
401828.490,5755929.230,77.960,43,61,42
401828.560,5755929.280,77.980,45,65,40
401828.620,5755929.340,77.980,51,79,45
401828.690,5755929.420,77.970,51,82,52
401828.760,5755929.480,77.980,46,71,47
401828.810,5755929.550,77.980,42,61,42
401828.880,5755929.620,77.970,34,53,38
401828.940,5755929.680,77.980,31,53,40
401829.010,5755929.750,77.970,28,48,37
401829.080,5755929.820,77.970,25,44,34
401829.140,5755929.880,77.960,33,55,41
401828.560,5755929.160,77.970,36,56,39
401828.620,5755929.220,77.980,43,63,37
401828.690,5755929.280,77.990,50,75,42
401828.750,5755929.360,77.960,50,75,47
401828.820,5755929.410,77.980,47,70,46
401828.880,5755929.480,77.980,41,60,43
401828.940,5755929.550,77.970,37,59,42
401829.010,5755929.610,77.980,41,70,50
401829.080,5755929.680,77.970,36,58,42
401829.140,5755929.750,77.960,34,51,36
401829.210,5755929.820,77.960,43,65,45
401829.270,5755929.880,77.960,39,66,47
401829.340,5755929.960,77.940,44,71,52
401828.820,5755929.280,77.980,45,70,43
401828.890,5755929.350,77.980,48,69,44
401828.940,5755929.420,77.960,40,61,40
401829.010,5755929.490,77.960,43,70,47
401829.070,5755929.550,77.960,45,75,51
401829.140,5755929.620,77.960,48,70,46
401829.210,5755929.690,77.960,39,58,36
401829.270,5755929.750,77.960,32,56,36
401829.340,5755929.820,77.950,34,59,41
401829.400,5755929.890,77.940,37,63,46
401829.470,5755929.960,77.940,44,72,54
401829.540,5755930.020,77.950,39,64,47
401829.010,5755929.350,77.970,48,74,47
401829.070,5755929.420,77.970,50,82,54
401829.140,5755929.490,77.970,48,77,52
401829.210,5755929.560,77.960,50,73,46
401829.270,5755929.630,77.960,46,68,41
401829.340,5755929.700,77.960,35,59,36
401829.400,5755929.760,77.960,32,55,37
401829.470,5755929.840,77.930,33,55,40
401829.540,5755929.900,77.930,40,68,49
401829.600,5755929.970,77.930,33,60,42
401829.670,5755930.030,77.940,30,55,39
401829.730,5755930.090,77.950,39,64,44
401829.210,5755929.430,77.970,47,76,51
401829.270,5755929.490,77.970,44,69,46
401829.340,5755929.560,77.970,42,66,42
401829.410,5755929.620,77.980,41,67,45
401829.470,5755929.690,77.970,43,64,46
401829.540,5755929.760,77.950,44,62,46
401829.600,5755929.840,77.940,48,75,49
401829.670,5755929.910,77.930,41,69,46
401829.730,5755929.980,77.920,39,67,49
401829.790,5755930.030,77.940,41,69,50
401829.860,5755930.090,77.960,34,63,45
401829.920,5755930.150,77.960,38,67,49
401829.990,5755930.220,77.950,41,68,52
401829.410,5755929.490,77.980,40,62,43
401829.470,5755929.550,77.980,37,60,43
401829.540,5755929.620,77.970,41,60,44
401829.600,5755929.690,77.960,44,61,44
401829.670,5755929.760,77.950,51,77,49
401829.730,5755929.830,77.940,46,75,51
401829.800,5755929.900,77.940,40,68,49
401829.870,5755929.960,77.950,39,67,51
401829.930,5755930.010,77.970,35,64,47
401829.990,5755930.080,77.970,40,69,52
401830.060,5755930.150,77.970,41,68,53
401830.120,5755930.210,77.970,39,63,48
401830.190,5755930.270,77.970,36,57,46
401829.600,5755929.560,77.960,36,52,38
401829.670,5755929.620,77.970,39,55,40
401829.740,5755929.690,77.960,45,69,50
401829.800,5755929.760,77.960,44,72,54
401829.870,5755929.820,77.950,35,63,47
401829.930,5755929.880,77.970,40,68,53
401829.990,5755929.950,77.970,39,69,53
401830.060,5755930.010,77.970,38,66,51
401830.120,5755930.080,77.960,35,59,46
401830.190,5755930.140,77.970,38,62,49
401830.260,5755930.210,77.970,38,62,50
401830.320,5755930.290,77.950,27,45,39
401830.390,5755930.350,77.960,25,46,39
401829.870,5755929.690,77.960,39,62,49
401829.930,5755929.760,77.950,31,54,41
401830.000,5755929.820,77.960,36,61,47
401830.060,5755929.890,77.950,37,64,50
401830.120,5755929.950,77.960,34,59,46
401830.190,5755930.020,77.960,27,48,37
401830.260,5755930.080,77.970,31,54,42
401830.320,5755930.140,77.970,36,63,49
401830.390,5755930.210,77.970,31,55,43
401830.450,5755930.290,77.950,29,53,41
401830.520,5755930.350,77.950,36,62,49
401830.580,5755930.430,77.940,35,62,48
401830.650,5755930.480,77.950,32,59,45
401830.070,5755929.750,77.970,32,51,40
401830.120,5755929.820,77.960,30,51,40
401830.190,5755929.890,77.960,31,50,37
401830.250,5755929.950,77.970,27,44,33
401830.320,5755930.010,77.970,29,48,37
401830.390,5755930.080,77.970,34,57,43
401830.450,5755930.150,77.960,38,65,47
401830.520,5755930.240,77.920,35,63,49
401830.580,5755930.310,77.920,37,65,51
401830.650,5755930.360,77.940,36,63,50
401830.720,5755930.420,77.950,37,63,49
401830.780,5755930.470,77.960,34,59,46
401830.850,5755930.530,77.980,28,51,40
401830.250,5755929.820,77.970,42,63,42
401830.320,5755929.880,77.970,36,56,40
401830.390,5755929.940,77.980,30,49,38
401830.450,5755930.010,77.980,31,50,39
401830.520,5755930.080,77.970,35,61,46
401830.580,5755930.180,77.910,34,66,50
401830.650,5755930.220,77.940,36,65,50
401830.720,5755930.290,77.940,32,56,44
401830.780,5755930.350,77.950,31,53,42
401830.850,5755930.430,77.930,32,55,44
401830.920,5755930.460,77.970,31,55,45
401830.970,5755930.520,77.980,36,57,49
401831.040,5755930.620,77.940,30,49,43
401830.520,5755929.940,77.980,36,60,46
401830.580,5755930.020,77.960,34,61,47
401830.650,5755930.110,77.910,35,66,50
401830.720,5755930.150,77.950,34,62,48
401830.780,5755930.210,77.970,33,56,45
401830.850,5755930.270,77.970,30,52,42
401830.920,5755930.340,77.970,31,55,45
401830.980,5755930.400,77.960,35,59,49
401831.040,5755930.450,77.990,30,51,42
401831.110,5755930.520,77.980,29,50,42
401831.170,5755930.590,77.990,33,53,47
401831.240,5755930.630,78.010,27,42,40
401831.300,5755930.700,78.010,25,37,36
401830.720,5755930.010,77.960,36,61,48
401830.780,5755930.080,77.970,32,57,44
401830.850,5755930.130,77.990,31,54,43
401830.910,5755930.240,77.930,35,58,47
401830.980,5755930.290,77.940,34,58,47
401831.050,5755930.340,77.970,30,52,42
401831.110,5755930.380,78.000,25,46,36
401831.170,5755930.450,77.990,32,52,42
401831.240,5755930.510,78.000,35,56,47
401831.300,5755930.570,78.010,27,43,39
401831.370,5755930.630,78.020,26,38,37
401831.440,5755930.710,78.020,28,38,36
401830.980,5755930.150,77.960,30,53,44
401831.050,5755930.210,77.970,24,46,35
401831.110,5755930.280,77.950,25,47,35
401831.170,5755930.330,77.980,24,44,32
401831.240,5755930.390,78.000,29,48,35
401831.300,5755930.440,78.020,27,44,34
401831.370,5755930.500,78.030,27,42,36
401831.440,5755930.560,78.040,32,48,43
401831.180,5755930.220,77.970,27,49,37
401831.240,5755930.270,77.990,25,44,32
401831.300,5755930.330,77.980,23,41,28
401831.370,5755930.370,78.040,22,39,29
401831.440,5755930.430,78.040,21,34,28
401831.500,5755930.490,78.050,30,46,40
401831.440,5755930.320,78.010,24,39,34
401831.500,5755930.380,78.020,20,33,28
401831.570,5755930.410,78.080,29,39,34
401825.310,5755928.260,79.270,107,139,74
401825.360,5755928.310,79.230,105,141,72
401825.390,5755928.340,79.170,106,142,72
401825.400,5755928.230,79.210,88,124,66
401825.420,5755928.250,79.120,83,114,55
401825.460,5755928.290,79.070,103,132,65
401825.480,5755928.310,78.990,116,146,71
401825.500,5755928.340,78.920,120,138,74
401825.510,5755928.350,78.800,137,145,86
401825.500,5755928.360,78.700,136,155,88
401825.550,5755928.410,78.670,120,149,81
401825.600,5755928.460,78.640,111,144,71
401825.460,5755928.170,79.210,74,108,54
401825.460,5755928.170,79.090,68,99,48
401825.460,5755928.170,78.970,75,97,44
401825.470,5755928.190,78.880,102,115,60
401825.510,5755928.220,78.820,118,114,70
401825.510,5755928.230,78.700,143,131,92
401825.520,5755928.250,78.610,139,141,91
401825.560,5755928.300,78.580,127,145,81
401825.590,5755928.330,78.510,125,150,84
401825.620,5755928.360,78.430,113,144,75
401825.660,5755928.400,78.380,117,143,78
401825.680,5755928.420,78.290,124,142,80
401825.700,5755928.440,78.210,136,139,83
401825.730,5755928.480,78.140,150,141,96
401825.750,5755928.500,78.040,151,136,97
401825.780,5755928.530,77.980,144,123,78
401825.510,5755928.090,78.950,82,101,51
401825.500,5755928.100,78.820,98,97,57
401825.530,5755928.120,78.740,110,98,65
401825.530,5755928.130,78.620,112,102,68
401825.540,5755928.140,78.520,119,117,70
401825.580,5755928.190,78.490,133,139,81
401825.620,5755928.230,78.440,143,151,92
401825.650,5755928.260,78.370,136,158,95
401825.680,5755928.300,78.310,127,152,91
401825.700,5755928.320,78.230,132,146,88
401825.740,5755928.360,78.170,145,140,93
401825.770,5755928.390,78.100,156,140,99
401825.810,5755928.430,78.050,155,138,101
401825.860,5755928.480,78.010,145,124,83
401825.900,5755928.520,77.950,156,132,81
401825.960,5755928.570,77.940,156,134,74
401825.600,5755928.070,79.010,81,103,57
401825.580,5755928.040,78.840,61,69,41
401825.580,5755928.040,78.720,62,60,38
401825.550,5755928.030,78.540,82,75,46
401825.590,5755928.070,78.500,111,104,62
401825.630,5755928.120,78.470,127,121,71
401825.670,5755928.160,78.420,146,137,89
401825.710,5755928.190,78.360,151,149,100
401825.740,5755928.230,78.310,150,156,105
401825.770,5755928.260,78.230,150,152,102
401825.810,5755928.290,78.170,159,149,106
401825.850,5755928.330,78.120,154,138,99
401825.880,5755928.370,78.060,159,140,103
401825.910,5755928.400,77.990,163,144,106
401825.970,5755928.460,77.970,162,139,91
401826.010,5755928.500,77.920,159,136,77
401826.090,5755928.570,77.950,153,131,66
401826.150,5755928.630,77.920,133,116,49
401826.220,5755928.700,77.930,96,91,34
401825.640,5755927.980,78.960,60,78,41
401825.630,5755927.970,78.820,52,60,37
401825.630,5755927.970,78.700,61,61,41
401825.630,5755927.980,78.590,94,84,52
401825.660,5755928.010,78.520,121,112,67
401825.690,5755928.050,78.470,136,127,75
401825.720,5755928.080,78.400,149,136,88
401825.760,5755928.120,78.340,149,134,92
401825.790,5755928.150,78.280,155,142,100
401825.820,5755928.180,78.200,161,149,108
