//X,Y,Z,R,G,B
401914.790,5755817.020,77.990,110,95,58
401914.850,5755817.100,78.020,95,87,54
401914.920,5755817.180,78.030,88,82,53
401914.810,5755816.920,78.030,111,96,60
401914.870,5755816.980,78.020,98,88,56
401914.930,5755817.060,78.030,91,86,55
401914.990,5755817.140,78.050,90,86,54
401914.940,5755816.940,78.050,92,86,54
401915.000,5755817.010,78.050,90,87,53
401915.070,5755817.100,78.090,96,94,57
401915.250,5755817.340,78.140,159,177,116
401915.010,5755816.890,78.070,95,96,59
401915.320,5755817.280,78.140,156,171,108
401915.400,5755817.220,78.140,143,154,91
401915.450,5755817.280,78.120,154,173,109
401915.410,5755817.100,78.150,123,133,74
401915.470,5755817.160,78.140,131,142,78
401915.530,5755817.240,78.150,146,161,96
401915.590,5755817.310,78.150,154,173,110
401915.480,5755817.040,78.150,127,140,79
401915.540,5755817.110,78.160,134,146,83
401915.600,5755817.170,78.130,139,153,88
401915.660,5755817.250,78.160,149,165,100
401915.720,5755817.320,78.150,149,170,104
401915.490,5755816.890,78.130,131,146,81
401915.550,5755816.960,78.130,134,150,86
401915.610,5755817.050,78.150,134,147,85
401915.670,5755817.120,78.160,135,146,81
401915.730,5755817.190,78.160,144,157,91
401915.790,5755817.260,78.150,143,160,92
401915.840,5755817.330,78.140,139,156,89
401915.620,5755816.900,78.130,139,153,88
401915.680,5755816.980,78.140,130,143,82
401915.740,5755817.050,78.140,127,138,74
401915.800,5755817.120,78.140,127,137,73
401915.860,5755817.200,78.160,130,142,75
401915.910,5755817.260,78.140,143,157,90
401915.750,5755816.920,78.130,134,149,89
401915.810,5755816.990,78.140,120,133,72
401915.870,5755817.060,78.140,116,125,64
401915.930,5755817.130,78.140,135,144,81
401915.980,5755817.210,78.150,136,149,83
401916.040,5755817.280,78.150,137,150,83
401915.820,5755816.860,78.140,135,150,88
401915.880,5755816.930,78.140,123,138,77
401915.940,5755817.010,78.150,116,125,65
401916.000,5755817.070,78.140,134,141,81
401916.050,5755817.140,78.140,137,149,87
401916.120,5755817.220,78.150,127,143,78
401916.180,5755817.290,78.150,129,143,76
401915.950,5755816.870,78.140,124,136,76
401916.010,5755816.940,78.140,120,127,70
401916.070,5755817.010,78.140,127,132,75
401916.120,5755817.080,78.140,134,145,83
401916.190,5755817.150,78.140,134,152,83
401916.250,5755817.230,78.150,136,153,85
401916.310,5755817.300,78.160,134,150,88
401916.080,5755816.890,78.140,121,124,68
401916.140,5755816.950,78.130,124,129,68
401916.190,5755817.020,78.120,132,141,73
401916.260,5755817.090,78.130,137,151,81
401916.320,5755817.170,78.130,135,150,84
401916.380,5755817.220,78.110,133,146,85
401916.220,5755816.890,78.120,119,123,58
401916.270,5755816.960,78.120,126,132,61
401916.320,5755817.020,78.100,129,133,68
401916.390,5755817.090,78.110,130,135,74
401916.450,5755817.160,78.100,133,136,77
401916.510,5755817.240,78.110,128,126,72
401916.570,5755817.300,78.090,121,112,65
401916.330,5755816.880,78.090,116,113,55
401916.390,5755816.950,78.080,120,113,59
401916.460,5755817.030,78.100,127,121,66
401916.520,5755817.100,78.100,126,118,64
401916.580,5755817.170,78.100,122,110,63
401916.640,5755817.240,78.100,120,104,61
401916.470,5755816.890,78.090,116,103,58
401916.530,5755816.960,78.090,120,106,60
401916.590,5755817.030,78.090,119,105,59
401916.650,5755817.120,78.110,118,101,60
401916.710,5755817.190,78.110,118,100,60
401916.770,5755817.280,78.130,117,98,59
401916.600,5755816.880,78.060,110,94,57
401916.660,5755816.960,78.070,108,93,55
401916.720,5755817.040,78.090,112,96,56
401916.780,5755817.120,78.100,115,97,59
401916.840,5755817.190,78.080,116,97,59
401916.900,5755817.280,78.130,117,97,58
401916.730,5755816.880,78.040,103,89,54
401916.790,5755816.970,78.070,110,93,57
401916.850,5755817.070,78.120,116,97,60
401916.910,5755817.150,78.130,116,97,59
401916.980,5755817.230,78.150,116,97,58
401917.030,5755817.290,78.110,116,98,58
401916.860,5755816.900,78.050,108,92,59
401916.920,5755816.980,78.080,116,98,61
401916.980,5755817.050,78.060,119,98,62
401917.050,5755817.160,78.130,120,99,62
401917.110,5755817.230,78.130,119,100,61
401916.930,5755816.860,78.080,113,96,61
401916.990,5755816.930,78.080,117,97,61
401917.050,5755816.990,78.080,119,99,62
401917.110,5755817.060,78.060,120,99,63
401917.180,5755817.170,78.130,119,99,63
401917.240,5755817.230,78.110,118,100,62
401917.060,5755816.870,78.090,121,100,63
401917.130,5755816.940,78.090,120,100,64
401917.190,5755817.010,78.080,117,97,63
401917.250,5755817.090,78.100,112,94,61
401917.310,5755817.180,78.120,115,98,62
401917.370,5755817.240,78.110,116,100,63
401917.140,5755816.820,78.110,122,101,64
401917.250,5755816.920,78.040,108,92,60
401917.320,5755817.050,78.130,101,85,55
401917.440,5755817.200,78.140,115,99,64
401917.330,5755816.880,78.070,103,92,59
401917.390,5755817.020,78.180,87,75,49
401917.400,5755816.830,78.090,115,108,67
401917.530,5755817.040,78.190,101,87,54
401917.650,5755817.180,78.190,113,99,65
401917.700,5755817.260,78.200,109,98,64
401917.530,5755816.900,78.170,115,105,66
401917.600,5755816.980,78.190,107,94,59
401917.660,5755817.050,78.180,112,97,65
401917.720,5755817.110,78.160,111,97,64
401917.770,5755817.210,78.220,112,103,68
401917.830,5755817.220,78.110,109,110,70
401917.610,5755816.840,78.160,119,103,68
401917.730,5755817.020,78.240,114,98,68
401917.790,5755817.040,78.150,111,100,69
401917.840,5755817.090,78.110,106,104,69
401917.900,5755817.170,78.130,117,118,78
401917.960,5755817.250,78.140,113,115,73
401917.740,5755816.850,78.160,112,97,66
401917.800,5755816.920,78.160,111,96,66
401917.860,5755816.970,78.130,118,109,79
401917.910,5755817.040,78.120,110,111,75
401917.970,5755817.130,78.150,93,96,60
401918.030,5755817.200,78.170,86,91,55
401917.870,5755816.810,78.090,96,88,60
401917.930,5755816.890,78.100,110,102,74
401917.980,5755816.990,78.140,95,98,64
401918.040,5755817.090,78.200,61,71,40
401918.100,5755817.200,78.260,48,58,31
401918.000,5755816.930,78.270,92,89,61
401918.050,5755817.000,78.270,71,80,50
401918.110,5755817.100,78.310,51,66,36
401918.180,5755817.210,78.390,37,52,25
401918.080,5755816.910,78.350,76,83,47
401918.130,5755816.990,78.360,65,80,41
401918.190,5755817.110,78.440,57,78,36
401918.250,5755817.210,78.490,38,59,26
401918.150,5755816.860,78.360,76,89,41
401918.200,5755816.970,78.430,78,99,40
401918.220,5755816.810,78.380,90,108,43
401918.270,5755816.950,78.490,86,112,41
401919.570,5755817.210,78.960,116,143,71
401919.520,5755817.020,78.960,126,154,83
401919.580,5755817.090,78.960,115,145,71
401919.590,5755816.950,78.940,117,146,76
401919.650,5755817.010,78.930,114,146,66
401919.710,5755817.110,78.970,100,135,52
401919.720,5755816.950,78.920,110,141,57
401919.780,5755817.020,78.920,107,141,59
401919.790,5755816.890,78.930,116,150,66
401919.850,5755816.950,78.910,116,149,63
401919.860,5755816.790,78.860,130,160,72
401919.920,5755816.880,78.900,125,155,77
401919.990,5755816.780,78.830,125,154,77
401920.050,5755816.870,78.850,110,143,63
401920.120,5755816.750,78.750,108,140,60
401920.860,5755817.050,79.130,88,112,40
401920.920,5755817.100,79.110,109,129,55
401920.930,5755817.000,79.160,81,106,38
401920.990,5755817.060,79.140,98,118,44
401921.050,5755817.110,79.100,104,121,53
401921.050,5755817.070,79.250,75,101,34
401921.110,5755817.110,79.210,83,104,36
401921.180,5755817.090,79.280,101,124,60
401921.240,5755817.150,79.250,104,127,67
401921.300,5755817.150,79.350,104,128,71
401921.370,5755817.100,79.370,113,137,76
401921.420,5755817.160,79.350,93,120,60
401921.440,5755817.030,79.340,102,127,64
401921.500,5755817.000,79.400,97,123,60
401921.560,5755817.070,79.390,103,129,69
401921.620,5755817.140,79.400,103,129,69
401921.570,5755816.960,79.430,99,123,62
401921.630,5755817.000,79.380,115,137,76
401921.680,5755817.080,79.400,118,139,76
401921.740,5755817.150,79.390,102,130,65
401921.630,5755816.900,79.420,114,135,75
401921.700,5755816.930,79.370,124,144,80
401921.760,5755817.000,79.360,115,138,71
401921.820,5755817.050,79.330,114,142,75
401921.870,5755817.130,79.360,88,119,54
401921.700,5755816.870,79.450,115,134,67
401921.760,5755816.920,79.420,105,128,57
401921.820,5755816.950,79.380,106,133,68
401921.880,5755817.000,79.340,117,147,81
401921.940,5755817.050,79.320,110,141,67
401921.940,5755817.010,79.440,109,141,71
401922.010,5755817.030,79.360,111,142,65
401922.050,5755817.130,79.420,100,129,57
401922.010,5755816.980,79.500,106,135,66
401922.070,5755817.010,79.420,99,128,61
401922.130,5755816.990,79.490,98,125,65
401922.580,5755816.850,79.510,88,113,54
401922.630,5755816.920,79.520,77,106,47
401922.690,5755816.990,79.520,62,93,34
401922.740,5755817.090,79.570,73,102,43
401922.640,5755816.800,79.530,67,90,39
401922.700,5755816.880,79.550,74,105,46
401922.750,5755816.970,79.580,71,106,44
401923.800,5755817.090,79.730,115,138,60
401923.870,5755817.030,79.720,115,136,65
401923.940,5755816.970,79.730,91,117,45
401923.990,5755817.040,79.730,76,105,32
401923.910,5755816.710,79.600,94,125,46
401923.960,5755816.800,79.640,88,117,45
401924.010,5755816.910,79.720,73,103,35
401924.060,5755816.990,79.740,64,95,28
401924.110,5755817.060,79.740,89,121,42
401923.970,5755816.660,79.630,106,138,49
401924.020,5755816.760,79.680,90,122,44
401924.080,5755816.840,79.690,64,99,30
401924.130,5755816.920,79.720,69,103,33
401924.180,5755817.000,79.730,87,121,42
401924.230,5755817.070,79.740,102,136,53
401924.090,5755816.710,79.690,85,119,37
401924.140,5755816.820,79.740,80,118,44
401924.200,5755816.880,79.720,85,121,48
401924.240,5755816.950,79.740,105,137,56
401924.300,5755817.020,79.740,105,138,57
401924.090,5755816.620,79.720,77,109,35
401924.150,5755816.680,79.720,81,114,39
401924.210,5755816.760,79.730,97,130,57
401924.250,5755816.860,79.790,93,127,52
401924.310,5755816.900,79.750,92,123,48
401924.360,5755816.980,79.760,91,126,53
401924.410,5755817.070,79.810,81,114,45
401924.220,5755816.620,79.710,86,119,44
401924.270,5755816.720,79.770,88,120,45
401924.320,5755816.810,79.800,88,118,46
401924.370,5755816.870,79.790,90,122,51
401924.430,5755816.940,79.790,89,120,49
401924.470,5755817.040,79.850,77,109,42
401924.330,5755816.670,79.780,68,97,33
401924.380,5755816.780,79.840,68,97,36
401924.430,5755816.830,79.820,78,108,43
401924.490,5755816.890,79.810,68,99,35
401924.540,5755816.990,79.870,63,94,30
401924.590,5755817.060,79.870,86,121,43
401924.400,5755816.620,79.790,61,85,36
401924.450,5755816.710,79.830,67,96,43
401924.490,5755816.790,79.840,65,99,39
401924.550,5755816.870,79.870,48,81,31
401924.600,5755816.940,79.880,50,75,26
401924.660,5755817.020,79.890,88,117,48
401906.140,5755817.540,80.120,125,138,74
401906.200,5755817.620,80.110,133,144,73
401906.220,5755817.450,80.200,127,141,68
401906.270,5755817.530,80.140,140,156,78
401906.400,5755817.540,80.160,132,150,76
401906.350,5755817.340,80.170,142,157,83
401906.400,5755817.430,80.140,139,152,78
401906.460,5755817.500,80.120,128,141,68
401906.490,5755817.610,80.040,128,142,67
401906.340,5755817.250,80.120,145,155,82
401906.390,5755817.340,80.080,140,153,76
401906.450,5755817.400,80.080,139,149,72
401906.520,5755817.460,80.090,130,140,68
401906.570,5755817.510,80.100,124,135,64
401906.630,5755817.570,80.110,144,152,77
401906.400,5755817.210,80.080,153,162,84
401906.460,5755817.270,80.080,153,159,81
401906.520,5755817.340,80.070,147,152,75
401906.580,5755817.400,80.080,133,144,72
401906.630,5755817.470,80.070,126,139,68
401906.670,5755817.580,79.990,143,153,71
401906.440,5755817.200,79.980,152,161,85
401906.500,5755817.270,79.980,162,161,87
401906.560,5755817.350,79.940,156,157,83
401906.610,5755817.420,79.940,129,140,65
401906.670,5755817.490,79.930,125,138,57
401906.730,5755817.550,79.920,133,145,58
401906.570,5755817.190,80.010,162,159,90
401906.630,5755817.270,79.980,153,153,80
401906.670,5755817.360,79.940,123,132,58
401906.730,5755817.440,79.900,127,138,59
401906.790,5755817.490,79.930,129,140,58
401906.850,5755817.560,79.930,149,156,79
401906.630,5755817.140,79.990,156,160,88
401906.700,5755817.190,80.020,157,161,89
401906.740,5755817.290,79.950,141,149,77
401906.800,5755817.340,79.970,128,141,69
401906.860,5755817.410,79.960,130,144,70
401906.920,5755817.510,79.910,147,159,89
401907.050,5755817.580,80.010,133,144,67
401906.810,5755817.190,80.010,129,141,70
401906.870,5755817.270,80.000,119,135,67
401906.930,5755817.340,79.990,131,146,79
401906.990,5755817.400,79.980,147,160,94
401907.030,5755817.540,79.860,146,158,85
401906.940,5755817.180,80.030,130,145,75
401907.000,5755817.250,80.030,137,152,84
401907.060,5755817.340,79.990,146,159,91
401907.100,5755817.480,79.850,141,152,82
401907.160,5755817.550,79.840,133,144,69
401907.010,5755817.120,80.040,136,153,78
401907.060,5755817.210,79.990,140,157,80
401907.100,5755817.340,79.870,143,159,84
401907.170,5755817.390,79.900,137,152,80
401907.210,5755817.510,79.800,129,145,74
401907.280,5755817.580,79.790,117,132,59
401907.120,5755817.160,79.980,135,154,74
401907.170,5755817.280,79.870,141,160,81
401907.220,5755817.380,79.810,136,155,80
401907.280,5755817.440,79.810,129,145,78
401907.340,5755817.510,79.800,117,131,61
401907.400,5755817.580,79.800,121,139,61
401907.180,5755817.120,79.930,137,152,76
401907.230,5755817.210,79.880,144,158,82
401907.280,5755817.320,79.810,139,152,79
401907.340,5755817.410,79.760,130,143,76
401907.390,5755817.510,79.700,117,132,61
401907.470,5755817.520,79.800,115,132,53
401907.530,5755817.580,79.810,124,141,64
401907.280,5755817.200,79.790,159,165,96
401907.340,5755817.300,79.740,152,157,88
401907.390,5755817.380,79.700,132,142,77
401907.460,5755817.440,79.720,120,134,64
401907.530,5755817.460,79.790,126,141,63
401907.600,5755817.510,79.820,120,136,58
401907.670,5755817.530,79.900,98,115,48
401907.340,5755817.160,79.750,154,159,94
401907.400,5755817.260,79.700,150,155,89
401907.450,5755817.340,79.670,129,140,71
401907.520,5755817.380,79.700,123,139,65
401907.590,5755817.410,79.770,137,154,74
401907.660,5755817.450,79.810,126,141,62
401907.730,5755817.480,79.880,106,122,51
401907.790,5755817.550,79.870,117,139,66
401907.470,5755817.150,79.770,133,146,74
401907.530,5755817.230,79.750,116,130,56
401907.590,5755817.310,79.720,123,140,61
401907.660,5755817.350,79.780,132,151,70
401907.730,5755817.380,79.830,122,141,64
401907.800,5755817.410,79.890,119,135,60
401907.860,5755817.480,79.900,115,138,60
401907.930,5755817.530,79.920,117,140,60
401907.530,5755817.120,79.720,137,154,73
401907.590,5755817.180,79.720,122,137,57
401907.660,5755817.240,79.750,125,141,60
401907.730,5755817.270,79.810,129,148,69
401907.800,5755817.320,79.850,122,141,70
401907.860,5755817.370,79.880,114,134,61
401907.730,5755817.150,79.810,125,143,60
401907.790,5755817.220,79.790,128,147,71
401907.870,5755817.230,79.890,118,134,67
401907.860,5755817.150,79.820,125,139,60
401907.930,5755817.190,79.870,100,114,43
401907.990,5755817.120,79.870,116,135,51
401908.050,5755817.200,79.860,123,148,58
401908.110,5755817.260,79.850,126,159,67
401908.180,5755817.320,79.870,140,171,75
401908.050,5755817.100,79.800,136,158,69
401908.110,5755817.170,79.790,132,162,66
401908.160,5755817.260,79.740,130,159,67
401908.240,5755817.270,79.840,135,164,73
401908.170,5755817.130,79.740,120,149,60
401908.230,5755817.210,79.730,119,144,61
401908.370,5755817.160,79.830,135,155,76
401908.540,5755817.350,79.820,118,139,57
401908.600,5755817.430,79.790,124,143,63
401908.410,5755817.150,79.730,133,152,68
401908.470,5755817.190,79.770,130,151,67
401908.540,5755817.260,79.770,119,143,60
401908.600,5755817.340,79.740,121,144,61
401908.480,5755817.080,79.740,127,147,62
401908.540,5755817.130,79.760,130,151,66
401908.600,5755817.200,79.750,114,139,53
401908.660,5755817.260,79.760,107,134,51
401908.530,5755817.080,79.620,128,149,64
401908.590,5755817.140,79.630,120,142,57
401908.650,5755817.210,79.640,96,119,36
401908.720,5755817.260,79.650,96,122,40
401909.340,5755817.350,79.500,115,138,60
401909.410,5755817.260,79.590,138,159,77
401909.840,5755817.500,79.510,115,133,61
401909.900,5755817.490,79.410,119,143,54
401909.960,5755817.480,79.320,126,152,55
401910.020,5755817.500,79.400,134,160,69
401910.020,5755817.450,79.270,130,155,63
401910.080,5755817.470,79.340,140,164,83
401910.150,5755817.490,79.430,128,151,82
401910.150,5755817.410,79.340,132,155,72
401910.210,5755817.470,79.350,117,140,68
401910.280,5755817.400,79.360,110,134,57
401910.340,5755817.380,79.280,102,126,50
401910.410,5755817.420,79.340,109,135,63
401910.470,5755817.350,79.350,120,141,72
401911.030,5755817.440,78.610,165,184,96
401911.090,5755817.400,78.560,164,183,93
401911.160,5755817.450,78.590,179,190,105
401911.160,5755817.320,78.580,176,184,98
401911.220,5755817.400,78.570,183,181,103
401911.160,5755817.220,78.530,185,181,99
401911.220,5755817.300,78.500,185,175,102
401911.290,5755817.380,78.490,177,156,89
401911.160,5755817.080,78.550,188,176,102
401911.230,5755817.200,78.450,189,170,95
401911.290,5755817.280,78.420,183,158,91
401911.350,5755817.350,78.410,171,140,80
401911.230,5755817.070,78.440,177,152,84
401911.290,5755817.190,78.330,178,149,84
401911.360,5755817.270,78.310,163,133,71
401911.290,5755817.060,78.350,163,137,77
401911.360,5755817.170,78.250,163,132,72
401911.420,5755817.260,78.200,158,126,64
401911.490,5755817.350,78.170,160,127,66
401911.420,5755817.180,78.130,163,132,65
401911.490,5755817.230,78.150,165,130,62
401911.620,5755817.410,78.060,157,124,61
401911.490,5755817.150,78.050,175,140,70
401911.560,5755817.220,78.040,169,133,61
401911.620,5755817.320,77.990,161,126,61
401911.680,5755817.410,77.940,160,126,63
401911.750,5755817.410,78.070,162,127,64
401911.560,5755817.120,77.990,175,139,67
401911.620,5755817.180,77.990,163,127,58
401911.690,5755817.260,77.970,158,123,58
401911.750,5755817.330,77.960,158,125,60
401911.820,5755817.410,77.940,160,126,62
401911.630,5755817.060,77.970,169,134,62
401911.690,5755817.140,77.950,158,124,58
401911.760,5755817.220,77.920,158,125,61
401911.820,5755817.290,77.920,158,126,61
401911.890,5755817.360,77.920,159,126,61
401911.950,5755817.420,77.930,153,121,58
401911.690,5755817.010,77.950,165,130,62
401911.760,5755817.080,77.950,154,122,57
401911.830,5755817.130,77.960,156,125,60
401911.890,5755817.200,77.960,161,128,64
401911.960,5755817.300,77.910,157,125,60
401912.020,5755817.350,77.950,150,119,55
401912.080,5755817.410,77.960,149,119,55
401911.830,5755817.030,77.900,150,119,55
401911.890,5755817.080,77.940,156,125,60
401911.960,5755817.160,77.920,159,127,62
401912.020,5755817.220,77.920,152,121,56
401912.090,5755817.290,77.940,146,117,51
401912.150,5755817.340,77.970,147,117,53
401912.210,5755817.410,77.970,145,115,52
401911.960,5755817.030,77.910,154,124,58
401912.030,5755817.080,77.940,151,122,56
401912.090,5755817.150,77.930,148,119,53
401912.160,5755817.220,77.930,148,119,53
401912.220,5755817.280,77.960,147,117,53
401912.280,5755817.350,77.950,144,114,50
401912.350,5755817.430,77.930,141,111,48
401912.100,5755817.030,77.910,149,120,54
401912.160,5755817.090,77.940,149,120,54
401912.230,5755817.160,77.930,149,120,53
401912.280,5755817.220,77.950,146,116,51
401912.350,5755817.290,77.950,142,112,48
401912.410,5755817.370,77.930,139,110,48
401912.480,5755817.430,77.930,137,108,49
401912.230,5755817.030,77.940,149,119,52
401912.300,5755817.110,77.910,146,117,50
401912.350,5755817.190,77.900,143,113,49
401912.420,5755817.250,77.910,141,111,49
401912.480,5755817.310,77.930,138,109,49
401912.550,5755817.380,77.940,136,107,50
401912.610,5755817.430,77.960,133,106,50
401912.300,5755816.970,77.920,147,118,48
401912.370,5755817.080,77.850,144,115,48
401912.420,5755817.150,77.850,141,111,47
401912.490,5755817.200,77.890,139,109,48
401912.550,5755817.260,77.900,135,106,48
401912.620,5755817.310,77.930,133,105,49
401912.680,5755817.380,77.940,130,104,50
401912.440,5755817.030,77.820,141,113,47
401912.490,5755817.100,77.820,138,109,47
401912.560,5755817.150,77.840,136,107,48
401912.620,5755817.210,77.870,133,105,48
401912.690,5755817.260,77.900,131,104,48
401912.750,5755817.330,77.900,129,103,49
401912.820,5755817.400,77.910,127,102,49
401912.500,5755816.970,77.810,138,110,45
401912.560,5755817.020,77.840,136,108,48
401912.630,5755817.100,77.830,134,107,49
401912.690,5755817.160,77.840,130,104,48
401912.760,5755817.220,77.850,128,103,46
401912.690,5755817.040,77.820,129,104,47
401912.760,5755817.110,77.810,126,102,46
401912.830,5755817.170,77.830,126,102,46
401912.760,5755816.970,77.820,125,102,47
401912.830,5755817.050,77.800,124,102,45
401912.900,5755817.110,77.810,125,101,45
401913.220,5755817.380,77.960,123,99,50
401912.900,5755817.000,77.770,123,101,45
401912.960,5755817.050,77.810,123,100,46
401913.030,5755817.110,77.820,124,101,47
401913.100,5755817.170,77.830,126,102,48
401913.100,5755817.000,77.900,124,101,49
401913.160,5755817.090,77.870,126,101,49
401913.620,5755817.350,78.040,127,102,51
401914.030,5755817.110,78.030,121,99,50
401914.090,5755817.160,78.060,114,93,44
401914.270,5755817.350,78.080,129,111,66
401914.030,5755817.010,77.950,126,102,52
401914.090,5755817.040,78.040,122,99,50
401914.040,5755816.940,77.830,129,103,52
401914.100,5755816.970,77.920,127,102,52
401914.160,5755816.990,78.000,125,100,51
401914.230,5755817.040,78.040,125,101,52
401914.280,5755817.100,78.070,128,109,61
401914.350,5755817.160,78.070,137,127,75
401914.410,5755817.240,78.050,130,110,57
401914.480,5755817.350,77.970,129,102,50
401914.230,5755816.920,78.010,128,102,53
401914.350,5755817.060,78.000,133,110,60
401914.410,5755817.090,78.070,136,116,64
401914.480,5755817.170,78.050,130,105,54
401914.550,5755817.260,78.010,130,103,52
401914.620,5755817.340,77.990,129,102,51
401914.360,5755816.960,77.950,130,103,55
401914.480,5755817.040,78.050,131,104,53
401914.550,5755817.120,78.020,130,103,52
401914.620,5755817.210,77.990,130,102,52
401914.690,5755817.320,77.910,129,101,52
401914.490,5755816.910,78.050,130,102,54
401914.550,5755816.990,78.030,129,101,53
401914.620,5755817.070,77.990,129,101,52
401914.690,5755817.150,77.960,127,101,51
401914.760,5755817.250,77.910,124,98,51
401914.820,5755817.300,77.950,117,94,50
401914.890,5755817.360,77.960,108,89,48
401914.560,5755816.900,77.940,129,102,52
401914.630,5755816.980,77.920,128,100,52
401914.700,5755817.050,77.910,125,98,52
401914.760,5755817.110,77.910,119,94,51
401914.830,5755817.180,77.920,109,88,50
401914.890,5755817.230,77.960,100,83,48
401914.950,5755817.260,78.040,92,79,48
401915.010,5755817.320,78.050,75,69,48
401914.760,5755816.970,77.940,116,93,50
401914.830,5755817.040,77.940,103,85,50
401914.890,5755817.070,78.000,95,80,50
401914.950,5755817.130,78.040,93,81,49
401915.020,5755817.200,78.050,87,79,47
401915.080,5755817.250,78.080,85,84,51
401914.890,5755816.940,78.020,89,79,49
401914.960,5755817.000,78.030,94,86,52
401915.020,5755817.050,78.080,96,87,51
401915.080,5755817.100,78.110,91,86,48
401915.210,5755817.230,78.130,133,142,76
401915.270,5755817.300,78.130,154,170,99
401915.020,5755816.900,78.100,104,100,54
401915.150,5755817.030,78.120,94,91,49
401915.210,5755817.090,78.130,112,112,60
401915.280,5755817.160,78.120,132,137,70
401915.340,5755817.230,78.120,144,155,85
401915.410,5755817.300,78.120,158,172,102
401915.280,5755817.030,78.130,127,128,68
401915.340,5755817.100,78.120,129,131,63
401915.410,5755817.170,78.120,132,137,72
401915.470,5755817.230,78.130,148,157,89
401915.540,5755817.300,78.130,155,169,95
401915.350,5755816.960,78.130,145,150,84
401915.410,5755817.030,78.120,132,135,67
401915.480,5755817.100,78.120,131,135,66
401915.540,5755817.170,78.120,141,149,78
401915.610,5755817.250,78.100,149,162,87
401915.670,5755817.310,78.120,152,166,89
401915.410,5755816.900,78.130,143,149,80
401915.480,5755816.970,78.120,135,141,71
401915.550,5755817.040,78.120,137,144,69
401915.610,5755817.110,78.120,140,147,72
401915.680,5755817.190,78.100,144,153,82
401915.740,5755817.260,78.100,151,163,88
401915.800,5755817.320,78.110,144,155,76
401915.550,5755816.900,78.130,140,147,76
401915.610,5755816.970,78.130,143,150,74
401915.680,5755817.040,78.120,134,139,63
401915.750,5755817.120,78.100,136,142,71
401915.810,5755817.190,78.100,136,143,71
401915.870,5755817.260,78.100,139,147,71
401915.930,5755817.330,78.100,150,162,84
401915.620,5755816.870,78.060,148,154,81
401915.690,5755816.940,78.060,146,154,77
401915.750,5755816.990,78.100,132,137,61
401915.810,5755817.050,78.110,125,127,57
401915.880,5755817.120,78.110,125,129,62
401915.930,5755817.190,78.110,139,147,73
401916.000,5755817.260,78.110,138,150,68
401915.760,5755816.870,78.060,145,155,80
401915.820,5755816.920,78.110,137,144,67
401915.880,5755816.990,78.110,122,125,50
401915.950,5755817.060,78.110,123,126,58
401916.000,5755817.130,78.100,138,145,73
401916.070,5755817.190,78.110,136,143,64
401916.130,5755817.270,78.100,131,137,55
401915.950,5755816.920,78.110,130,132,56
401916.020,5755816.990,78.100,125,124,54
401916.070,5755817.060,78.110,134,137,66
401916.140,5755817.130,78.110,139,145,73
401916.200,5755817.190,78.110,137,145,69
401916.270,5755817.260,78.120,141,149,72
401916.330,5755817.320,78.130,136,140,66
401916.020,5755816.860,78.090,123,124,52
401916.090,5755816.930,78.100,126,126,56
401916.140,5755817.000,78.110,129,131,60
401916.200,5755817.060,78.120,137,143,72
401916.270,5755817.130,78.110,139,148,73
401916.330,5755817.210,78.120,137,146,68
401916.400,5755817.270,78.120,135,139,66
401916.160,5755816.880,78.090,122,122,50
401916.210,5755816.940,78.100,127,126,53
401916.270,5755817.010,78.100,132,134,62
401916.340,5755817.080,78.100,130,132,60
401916.410,5755817.150,78.100,132,135,60
401916.470,5755817.230,78.080,135,133,61
401916.540,5755817.310,78.050,130,118,53
401916.280,5755816.900,78.060,125,119,47
401916.350,5755816.970,78.050,123,114,49
401916.410,5755817.040,78.060,125,113,51
401916.480,5755817.100,78.070,130,119,55
401916.540,5755817.170,78.070,129,113,52
401916.610,5755817.250,78.040,123,102,49
401916.680,5755817.310,78.050,123,98,50
401916.420,5755816.920,78.030,118,101,46
401916.480,5755816.970,78.050,124,104,51
401916.550,5755817.040,78.060,127,105,53
401916.610,5755817.110,78.060,127,102,52
401916.680,5755817.180,78.050,122,97,49
401916.740,5755817.240,78.060,121,95,48
401916.800,5755817.290,78.100,120,94,48
401916.490,5755816.860,78.020,119,97,48
401916.550,5755816.920,78.040,119,95,49
401916.620,5755816.980,78.060,119,94,49
401916.680,5755817.040,78.060,121,96,50
401916.740,5755817.100,78.080,120,95,47
401916.810,5755817.170,78.070,121,94,48
401916.860,5755817.210,78.130,122,95,50
401916.930,5755817.280,78.130,122,95,51
401916.620,5755816.840,78.050,109,87,44
401916.680,5755816.910,78.060,110,89,46
401916.750,5755816.960,78.090,117,93,49
401916.810,5755817.040,78.080,120,93,48
401916.880,5755817.110,78.080,120,93,48
401916.930,5755817.140,78.140,121,93,50
401917.000,5755817.210,78.130,121,94,51
401917.060,5755817.270,78.140,121,95,52
401916.760,5755816.860,78.040,109,90,45
401916.820,5755816.920,78.050,114,92,48
401916.880,5755816.970,78.080,122,95,51
401916.950,5755817.040,78.070,122,94,51
401917.000,5755817.090,78.110,124,95,53
401917.070,5755817.160,78.110,124,96,53
401917.130,5755817.210,78.140,122,96,53
401917.200,5755817.290,78.110,121,96,53
401916.890,5755816.860,78.040,116,92,47
401916.950,5755816.900,78.080,122,95,51
401917.020,5755816.980,78.060,124,95,53
401917.070,5755817.020,78.110,125,96,53
401917.140,5755817.080,78.130,123,95,54
401917.190,5755817.130,78.170,122,96,55
401917.270,5755817.250,78.070,121,97,55
401917.020,5755816.850,78.070,124,96,51
401917.080,5755816.900,78.110,125,97,53
401917.150,5755816.970,78.100,125,97,53
401917.200,5755817.010,78.140,118,92,51
401917.260,5755817.060,78.170,116,92,52
401917.330,5755817.150,78.130,120,96,54
401917.400,5755817.210,78.150,122,98,55
401917.140,5755816.820,78.120,128,99,54
401917.210,5755816.890,78.120,124,96,52
401917.270,5755816.930,78.170,110,85,47
401917.400,5755817.070,78.170,116,94,52
401917.460,5755817.140,78.160,120,97,55
401917.530,5755817.220,78.150,121,97,54
401917.580,5755817.270,78.180,117,95,54
401917.280,5755816.840,78.100,122,94,52
401917.340,5755816.880,78.150,110,89,50
401917.530,5755817.070,78.170,119,96,55
401917.590,5755817.140,78.180,120,97,56
401917.650,5755817.210,78.160,114,92,52
401917.410,5755816.830,78.110,116,94,49
401917.530,5755816.950,78.170,118,101,52
401917.600,5755817.030,78.140,118,96,55
401917.660,5755817.090,78.160,118,95,56
401917.730,5755817.180,78.110,115,93,54
401917.790,5755817.240,78.130,106,86,50
401917.600,5755816.870,78.190,116,94,50
401917.660,5755816.950,78.180,116,93,54
401917.730,5755817.030,78.150,116,93,56
401917.790,5755817.090,78.160,110,91,58
401917.860,5755817.170,78.140,118,103,68
401917.920,5755817.220,78.170,120,108,67
401917.970,5755817.270,78.210,111,106,63
401917.670,5755816.820,78.170,118,94,55
401917.740,5755816.900,78.150,113,91,54
401917.800,5755816.970,78.140,119,97,61
401917.850,5755817.020,78.170,111,95,62
401917.920,5755817.100,78.150,117,110,70
401917.980,5755817.140,78.210,94,86,53
401918.030,5755817.180,78.260,73,71,45
401918.080,5755817.220,78.330,67,73,45
401918.140,5755817.260,78.370,60,67,38
401917.800,5755816.830,78.160,105,85,52
401917.870,5755816.900,78.140,113,95,63
401917.930,5755816.970,78.140,115,99,66
401917.980,5755817.020,78.190,96,91,56
401918.030,5755817.040,78.280,68,72,39
401918.080,5755817.060,78.360,62,69,38
401918.260,5755817.230,78.440,45,59,31
401918.310,5755817.260,78.510,40,55,27
401917.930,5755816.810,78.190,104,94,63
401917.990,5755816.870,78.220,106,95,61
401918.040,5755816.930,78.240,68,67,40
401918.090,5755816.940,78.340,62,72,37
401918.200,5755817.040,78.410,67,87,33
401918.320,5755817.130,78.500,49,70,31
401918.370,5755817.170,78.550,46,66,29
401918.420,5755817.210,78.600,47,68,29
401918.110,5755816.830,78.310,71,77,41
401919.460,5755817.130,78.950,132,145,77
401919.520,5755817.200,78.950,123,138,63
401919.460,5755817.000,78.940,138,160,87
401919.530,5755817.080,78.930,133,149,81
401919.590,5755817.140,78.940,119,132,61
401919.650,5755817.210,78.940,112,133,62
401919.530,5755816.960,78.920,141,164,89
401919.600,5755817.030,78.910,136,158,89
401919.660,5755817.100,78.920,110,129,57
401919.720,5755817.160,78.920,101,125,54
401919.490,5755816.800,78.860,124,150,74
401919.540,5755816.850,78.890,127,150,74
401919.600,5755816.900,78.930,121,140,65
401919.670,5755816.970,78.910,116,139,67
401919.730,5755817.030,78.920,109,133,59
401919.790,5755817.090,78.930,114,138,66
401919.850,5755817.150,78.950,117,141,65
401919.610,5755816.790,78.890,115,139,64
401919.670,5755816.840,78.910,106,126,51
401919.730,5755816.910,78.910,94,118,42
401919.790,5755816.950,78.950,100,124,48
401919.850,5755817.020,78.950,115,138,64
401919.960,5755817.140,78.970,117,144,62
401919.740,5755816.790,78.880,116,140,64
401919.920,5755816.960,78.950,115,141,62
401920.040,5755817.090,78.940,115,142,53
401920.110,5755817.170,78.920,106,130,46
401919.810,5755816.740,78.860,111,136,57
401919.930,5755816.840,78.920,110,140,63
401919.990,5755816.900,78.930,107,136,56
401920.100,5755817.030,78.940,102,127,44
401920.170,5755817.100,78.940,90,115,39
401920.230,5755817.170,78.930,88,113,37
401919.960,5755816.770,78.810,105,131,58
401920.000,5755816.790,78.890,101,129,53
401920.060,5755816.860,78.900,107,133,53
401920.120,5755816.920,78.910,103,129,48
401920.180,5755816.990,78.900,84,106,33
401920.240,5755817.040,78.930,73,97,31
401920.300,5755817.110,78.930,76,101,32
401920.370,5755817.180,78.910,83,108,31
401920.100,5755816.800,78.760,95,121,38
401920.160,5755816.860,78.780,90,121,35
401920.200,5755816.900,78.820,88,118,37
401920.260,5755816.940,78.860,80,105,29
401920.310,5755816.990,78.910,77,98,30
401920.370,5755817.060,78.910,78,100,32
401920.440,5755817.130,78.890,72,96,29
401920.500,5755817.190,78.910,73,96,33
401920.190,5755816.780,78.680,93,117,30
401920.230,5755816.810,78.740,87,116,28
401920.280,5755816.850,78.790,72,101,27
401920.330,5755816.890,78.850,72,98,29
401920.380,5755816.930,78.890,74,100,28
401920.440,5755817.000,78.900,65,91,27
401920.500,5755817.060,78.900,55,81,25
401920.570,5755817.130,78.900,51,74,28
401920.610,5755817.160,78.980,59,82,30
401920.660,5755817.190,79.020,75,98,28
401920.300,5755816.730,78.780,86,110,28
401920.340,5755816.780,78.810,62,87,23
401920.400,5755816.830,78.840,56,82,26
401920.450,5755816.890,78.860,60,86,28
401920.510,5755816.940,78.880,56,82,27
401920.570,5755817.010,78.890,46,71,26
401920.630,5755817.060,78.920,46,69,26
401920.680,5755817.090,78.980,55,81,26
401920.730,5755817.130,79.020,65,93,26
401920.780,5755817.170,79.060,69,95,25
401920.460,5755816.770,78.830,53,78,28
401920.530,5755816.830,78.840,47,72,28
401920.580,5755816.890,78.860,46,72,27
401920.640,5755816.940,78.890,53,81,28
401920.690,5755816.990,78.930,65,92,31
401920.740,5755817.020,79.000,70,96,28
401920.780,5755817.040,79.070,85,108,37
401920.830,5755817.090,79.130,87,104,36
401920.880,5755817.130,79.180,89,107,37
401920.920,5755817.170,79.230,85,105,35
401920.590,5755816.760,78.860,40,64,27
401920.650,5755816.820,78.880,40,65,25
401920.710,5755816.890,78.870,52,81,28
401920.770,5755816.950,78.880,83,108,40
401920.810,5755816.970,78.970,95,115,43
401920.840,5755816.980,79.100,98,117,45
401920.670,5755816.720,78.800,42,66,26
401920.710,5755816.740,78.910,42,67,26
401920.770,5755816.800,78.910,49,76,28
401920.840,5755816.890,78.870,70,95,34
401920.880,5755816.930,78.950,91,110,41
401920.910,5755816.930,79.070,89,104,39
401920.940,5755816.930,79.180,85,104,39
401920.810,5755816.710,78.980,47,72,29
401920.890,5755816.810,78.920,56,83,30
401920.950,5755816.870,78.940,75,95,31
401920.980,5755816.860,79.080,70,81,30
401921.010,5755816.870,79.180,64,82,30
401920.950,5755816.730,78.970,49,75,31
401921.000,5755816.770,79.010,57,79,31
401921.030,5755816.780,79.110,55,72,29
401921.070,5755816.810,79.180,54,72,28
401921.120,5755816.840,79.250,64,85,34
401921.100,5755816.720,79.120,56,75,34
401921.140,5755816.750,79.180,67,82,39
401921.180,5755816.760,79.270,72,85,37
401921.280,5755816.850,79.350,109,123,54
401921.240,5755816.700,79.280,87,98,46
401921.300,5755816.750,79.310,98,110,53
401921.350,5755816.810,79.320,107,121,56
401921.410,5755816.850,79.360,107,123,53
401921.410,5755816.720,79.360,79,95,36
401921.510,5755816.690,79.440,87,107,45
401922.880,5755817.080,79.500,80,105,45
401922.950,5755817.030,79.480,82,105,45
401923.000,5755817.080,79.510,80,113,45
401923.000,5755816.940,79.520,96,112,58
401923.060,5755817.000,79.540,81,107,52
401923.120,5755817.060,79.550,80,108,46
401923.050,5755816.870,79.560,97,114,55
401923.120,5755816.950,79.540,83,104,48
401923.190,5755817.010,79.540,79,106,48
401923.240,5755817.070,79.550,81,108,45
401923.100,5755816.780,79.620,110,125,59
401923.170,5755816.860,79.580,86,104,39
401923.240,5755816.940,79.560,83,105,40
401923.300,5755817.000,79.570,83,105,41
401923.370,5755817.070,79.560,74,95,39
401923.410,5755817.110,79.600,83,105,47
401923.100,5755816.650,79.630,124,143,75
401923.220,5755816.780,79.630,92,108,40
401923.310,5755816.880,79.570,90,111,43
401923.360,5755816.920,79.600,102,121,51
401923.430,5755817.010,79.560,87,102,41
401923.470,5755817.040,79.620,81,99,43
401923.510,5755817.080,79.680,106,126,53
401923.300,5755816.740,79.590,98,112,45
401923.390,5755816.830,79.530,99,120,48
401923.430,5755816.870,79.590,91,110,39
401923.500,5755816.950,79.550,81,99,31
401923.540,5755816.990,79.610,100,122,47
401923.590,5755817.030,79.660,123,143,61
401923.630,5755817.070,79.700,117,136,55
401923.360,5755816.660,79.610,118,131,60
401923.440,5755816.750,79.560,105,124,48
401923.510,5755816.830,79.550,99,121,46
401923.570,5755816.900,79.530,96,118,43
401923.620,5755816.940,79.580,104,127,49
401923.660,5755816.970,79.640,123,141,65
401923.710,5755817.020,79.670,120,139,60
401923.770,5755817.080,79.680,118,137,53
401923.500,5755816.680,79.580,104,126,48
401923.550,5755816.740,79.600,112,135,58
401923.610,5755816.800,79.610,113,134,57
401923.670,5755816.860,79.610,108,130,50
401923.740,5755816.940,79.590,115,133,55
401923.780,5755816.970,79.650,103,121,46
401923.830,5755817.010,79.690,98,119,42
401923.890,5755817.070,79.700,99,119,46
401923.610,5755816.670,79.610,102,123,49
401923.660,5755816.710,79.660,112,130,58
401923.720,5755816.780,79.650,93,109,40
401923.780,5755816.840,79.650,106,125,52
401923.830,5755816.890,79.680,105,123,46
401923.880,5755816.940,79.720,83,106,34
401923.950,5755817.010,79.710,82,107,38
401923.990,5755817.060,79.730,98,121,49
401923.780,5755816.710,79.660,91,105,37
401923.850,5755816.780,79.660,98,115,52
401923.900,5755816.830,79.690,100,114,44
401923.960,5755816.890,79.700,73,98,26
401924.010,5755816.940,79.720,70,99,31
401924.060,5755816.980,79.760,83,113,39
401924.090,5755817.030,79.800,78,110,28
401923.890,5755816.690,79.710,113,129,63
401923.950,5755816.740,79.730,102,110,47
401924.050,5755816.850,79.770,59,89,24
401924.110,5755816.910,79.790,78,109,36
401924.150,5755816.960,79.800,88,119,41
401924.210,5755817.020,79.820,102,137,50
401924.010,5755816.680,79.740,88,102,37
401924.060,5755816.740,79.750,68,94,31
401924.130,5755816.810,79.760,74,107,33
401924.170,5755816.860,79.790,83,113,42
401924.220,5755816.910,79.800,100,127,55
401924.280,5755816.970,79.810,105,137,56
401924.330,5755817.020,79.850,99,127,46
401924.070,5755816.630,79.730,76,96,31
401924.140,5755816.690,79.730,74,106,41
401924.200,5755816.760,79.720,96,128,54
401924.260,5755816.820,79.750,91,122,49
401924.300,5755816.870,79.760,92,120,48
401924.350,5755816.920,79.790,107,134,59
401924.390,5755816.950,79.850,101,125,45
401924.200,5755816.630,79.730,86,112,46
401924.250,5755816.690,79.760,97,122,51
401924.310,5755816.740,79.770,86,115,41
401924.360,5755816.790,79.790,84,113,44
401924.400,5755816.850,79.820,95,123,51
401924.450,5755816.890,79.860,84,108,37
401924.500,5755816.940,79.880,52,74,26
401924.560,5755817.000,79.900,58,89,34
401924.610,5755817.050,79.930,65,100,34
401924.370,5755816.670,79.790,60,89,30
401924.420,5755816.720,79.810,61,91,31
401924.460,5755816.770,79.850,66,101,39
401924.500,5755816.810,79.890,79,106,40
401924.550,5755816.860,79.910,67,89,35
401924.610,5755816.920,79.930,79,105,43
401924.760,5755817.070,80.000,87,118,41
401924.470,5755816.640,79.850,65,94,37
401924.520,5755816.690,79.880,66,99,40
401924.720,5755816.900,79.970,67,101,35
401924.780,5755816.960,79.980,90,124,51
401924.830,5755817.020,79.990,86,115,41
401924.570,5755816.610,79.910,85,117,46
401924.960,5755817.030,79.970,68,100,32
401925.010,5755816.940,80.010,75,109,33
401925.070,5755817.010,80.010,103,138,53
401925.060,5755816.870,80.040,103,133,55
401925.130,5755816.940,80.040,123,151,65
401925.180,5755816.990,80.060,130,156,67
401925.230,5755817.050,80.070,116,137,57
401925.110,5755816.780,80.090,115,142,66
401925.340,5755817.030,80.120,70,96,35
401925.460,5755817.030,80.130,101,126,61
401925.520,5755816.960,80.140,107,133,66
401925.570,5755816.890,80.160,93,121,52
401925.650,5755816.970,80.130,93,122,50
401925.710,5755817.040,80.130,102,126,51
401925.720,5755816.920,80.120,85,109,47
401925.770,5755816.970,80.140,87,111,45
401925.820,5755817.020,80.160,70,92,31
401925.540,5755816.610,80.100,65,90,32
401925.590,5755816.650,80.140,94,119,52
401925.640,5755816.710,80.160,90,111,47
401925.710,5755816.780,80.140,70,91,36
401925.780,5755816.850,80.130,72,96,43
401925.820,5755816.900,80.160,76,103,43
401925.880,5755816.950,80.180,72,95,36
401925.930,5755817.010,80.190,59,81,33
401925.650,5755816.590,80.140,93,117,53
401925.700,5755816.640,80.160,91,114,51
401925.760,5755816.700,80.170,91,112,52
401925.820,5755816.770,80.170,93,115,57
401925.820,5755816.640,80.050,98,122,59
401925.840,5755816.660,80.140,111,132,70
401925.890,5755816.710,80.170,121,139,75
401925.940,5755816.760,80.190,117,133,66
401925.860,5755816.560,80.090,108,132,69
401925.900,5755816.590,80.150,123,140,82
401925.940,5755816.640,80.180,108,127,66
401926.010,5755816.580,80.180,79,101,49
401926.130,5755816.580,80.190,76,99,51
401926.190,5755816.640,80.190,75,98,42
401926.620,5755816.600,80.180,105,127,64
401926.780,5755816.760,80.240,116,140,78
401926.830,5755816.820,80.260,115,141,77
401926.890,5755816.880,80.270,117,142,78
401926.940,5755816.930,80.290,113,141,71
401926.710,5755816.560,80.140,102,124,60
401926.760,5755816.620,80.160,104,127,62
401926.820,5755816.680,80.160,107,132,68
401926.880,5755816.750,80.150,104,132,69
401926.940,5755816.810,80.170,101,128,64
401927.000,5755816.870,80.170,99,125,65
401927.040,5755816.910,80.210,97,126,67
401926.830,5755816.560,80.160,103,124,58
401926.920,5755816.660,80.100,89,114,51
401926.960,5755816.700,80.130,93,122,54
401927.010,5755816.750,80.160,94,118,53
401927.060,5755816.810,80.170,80,105,47
401927.120,5755816.860,80.190,91,118,60
401926.980,5755816.600,80.090,78,103,47
401927.020,5755816.630,80.150,92,118,54
401927.070,5755816.690,80.160,88,109,47
401927.120,5755816.750,80.180,73,98,41
401927.180,5755816.800,80.190,79,109,54
401927.040,5755816.530,80.110,77,104,50
401927.090,5755816.580,80.130,84,107,51
401927.130,5755816.630,80.170,78,100,45
401927.180,5755816.680,80.180,73,101,46
401927.240,5755816.740,80.200,79,109,52
401927.170,5755816.540,80.090,71,96,44
401927.220,5755816.590,80.110,67,97,41
401927.270,5755816.640,80.140,88,120,59
401927.310,5755816.690,80.180,97,122,57
401927.320,5755816.560,80.180,96,125,57
401927.360,5755816.610,80.210,78,99,39
401927.430,5755816.550,80.200,102,125,56
401906.070,5755817.570,80.160,101,120,67
401906.120,5755817.620,80.140,98,119,64
401906.130,5755817.510,80.160,85,104,53
401906.190,5755817.570,80.150,79,105,47
401906.240,5755817.620,80.140,88,113,56
401906.200,5755817.460,80.160,103,123,61
401906.250,5755817.520,80.150,103,133,66
401906.300,5755817.560,80.130,106,132,70
401906.270,5755817.410,80.170,117,138,70
401906.320,5755817.470,80.160,122,145,74
401906.370,5755817.520,80.140,114,138,71
401906.420,5755817.590,80.150,102,126,61
401906.330,5755817.350,80.170,118,141,75
401906.390,5755817.410,80.160,117,138,68
401906.440,5755817.470,80.150,117,137,70
401906.530,5755817.550,80.080,91,114,44
401906.570,5755817.590,80.040,85,106,46
401906.610,5755817.610,79.970,88,106,46
401906.390,5755817.260,80.120,125,148,77
401906.440,5755817.320,80.110,125,145,70
401906.500,5755817.380,80.110,124,145,74
401906.550,5755817.440,80.090,113,136,69
401906.570,5755817.430,79.990,104,126,63
401906.620,5755817.480,79.970,95,119,58
401906.680,5755817.550,79.960,90,110,45
401906.440,5755817.180,80.090,125,144,73
401906.500,5755817.240,80.080,125,141,69
401906.560,5755817.310,80.080,131,147,75
401906.610,5755817.370,80.080,131,149,77
401906.660,5755817.430,80.080,116,140,67
401906.710,5755817.490,80.060,99,124,52
401906.750,5755817.500,79.970,99,121,49
401906.800,5755817.560,79.970,112,129,62
401906.560,5755817.180,80.070,118,127,65
401906.620,5755817.230,80.060,132,141,72
401906.670,5755817.290,80.050,131,146,69
401906.710,5755817.350,80.030,121,143,63
401906.770,5755817.400,80.010,107,131,48
401906.820,5755817.470,80.010,98,121,41
401906.870,5755817.500,79.970,109,124,55
401906.690,5755817.180,80.070,114,123,53
401906.740,5755817.250,80.070,117,132,61
401906.780,5755817.280,80.020,116,136,64
401906.830,5755817.330,80.000,113,134,59
401906.880,5755817.380,79.980,110,132,60
401906.750,5755817.130,80.080,98,115,53
401906.810,5755817.180,80.060,94,115,52
401906.850,5755817.230,80.030,100,120,54
401906.900,5755817.280,80.000,109,129,64
401906.940,5755817.320,79.970,105,129,62
401906.910,5755817.160,80.010,96,118,55
401906.950,5755817.190,79.960,108,131,67
401907.020,5755817.140,79.980,112,138,70
401908.000,5755817.170,79.890,116,145,70
401908.580,5755817.120,79.770,122,149,76
401908.690,5755817.080,79.700,104,135,62
401908.740,5755817.100,79.630,102,132,57
401908.810,5755817.220,79.710,108,139,58
401908.870,5755817.310,79.720,115,146,69
401909.080,5755817.470,79.570,100,128,64
401909.130,5755817.500,79.530,97,127,56
401908.820,5755817.100,79.710,78,107,40
401908.870,5755817.140,79.680,95,123,52
401908.930,5755817.200,79.660,112,142,67
401908.970,5755817.220,79.600,114,142,72
401909.030,5755817.280,79.570,102,130,64
401909.090,5755817.370,79.600,100,126,59
401909.150,5755817.420,79.580,114,138,69
401909.190,5755817.440,79.520,113,139,68
401909.250,5755817.510,79.510,109,134,60
401908.940,5755817.070,79.660,103,132,73
401908.990,5755817.120,79.630,113,141,73
401909.040,5755817.160,79.600,109,139,69
401909.110,5755817.280,79.660,98,129,54
401909.160,5755817.320,79.630,101,128,52
401909.210,5755817.360,79.580,109,134,63
401909.260,5755817.380,79.510,102,126,58
401909.310,5755817.410,79.460,95,121,48
401909.370,5755817.470,79.460,94,119,47
401909.410,5755817.470,79.360,96,124,57
401909.120,5755817.140,79.650,111,135,67
401909.180,5755817.220,79.650,98,128,53
401909.340,5755817.360,79.570,99,126,54
401909.390,5755817.390,79.510,95,125,52
401909.440,5755817.420,79.470,95,122,51
401909.490,5755817.470,79.440,101,128,62
401909.410,5755817.310,79.580,114,143,68
401909.450,5755817.330,79.520,114,143,71
401909.510,5755817.380,79.480,107,137,63
401909.570,5755817.480,79.530,106,137,64
401909.360,5755817.130,79.580,119,142,72
401909.520,5755817.280,79.520,115,145,71
401909.570,5755817.320,79.470,106,136,60
401909.640,5755817.430,79.530,102,132,50
401909.430,5755817.080,79.610,105,128,60
401909.600,5755817.250,79.550,124,149,75
401909.640,5755817.270,79.490,112,142,71
401909.740,5755817.360,79.420,92,122,34
401909.790,5755817.420,79.410,95,125,41
401909.850,5755817.480,79.400,101,132,45
401909.980,5755817.480,79.390,110,145,52
401909.940,5755817.340,79.470,114,145,59
401909.980,5755817.340,79.370,116,149,59
401910.140,5755817.480,79.270,106,138,57
401910.110,5755817.360,79.380,115,147,65
401910.150,5755817.350,79.260,110,143,53
401910.210,5755817.430,79.290,105,138,55
401910.350,5755817.490,79.350,103,132,58
401910.410,5755817.400,79.320,100,128,64
401910.410,5755817.210,79.220,86,115,53
401910.460,5755817.220,79.150,92,121,58
401910.480,5755817.170,79.260,91,120,58
401910.530,5755817.190,79.190,89,121,55
401910.590,5755817.240,79.160,105,135,68
401910.650,5755817.330,79.190,108,140,70
401910.450,5755817.050,79.360,94,123,58
401910.550,5755817.130,79.280,105,131,67
401910.600,5755817.160,79.220,101,129,59
401910.660,5755817.200,79.190,112,139,63
401910.620,5755817.040,79.230,107,136,63
401911.240,5755817.410,78.570,165,164,99
401911.280,5755817.390,78.450,150,137,80
401911.330,5755817.360,78.300,150,128,72
401911.380,5755817.370,78.200,151,127,71
401911.440,5755817.450,78.210,148,126,70
401911.290,5755817.250,78.430,160,145,86
401911.340,5755817.240,78.310,149,131,80
401911.390,5755817.220,78.170,148,126,75
401911.430,5755817.210,78.060,156,132,76
401911.490,5755817.260,78.030,156,133,74
401911.550,5755817.320,78.010,152,129,71
401911.610,5755817.360,77.960,149,126,69
401911.670,5755817.460,78.010,152,129,70
401911.350,5755817.090,78.290,150,129,67
401911.400,5755817.110,78.210,150,129,73
401911.450,5755817.110,78.110,158,133,77
401911.510,5755817.160,78.080,166,140,77
401911.570,5755817.230,78.070,159,134,73
401911.630,5755817.280,78.040,153,128,70
401911.680,5755817.320,77.990,151,127,69
401911.740,5755817.370,77.960,153,129,70
401911.420,5755817.050,78.310,156,131,69
401911.460,5755817.010,78.160,159,134,73
401911.510,5755817.010,78.060,164,137,75
401911.570,5755817.060,78.020,164,136,74
401911.630,5755817.120,78.010,156,130,73
401911.690,5755817.170,77.970,151,127,71
401911.750,5755817.220,77.940,150,125,69
401911.810,5755817.290,77.930,151,127,70
401911.870,5755817.360,77.940,149,125,67
401911.930,5755817.430,77.930,145,123,66
401911.700,5755817.010,77.940,154,128,73
401911.750,5755817.060,77.910,151,127,70
401911.820,5755817.130,77.910,150,126,70
401911.880,5755817.250,77.970,150,127,70
401911.940,5755817.310,77.960,145,124,66
401912.000,5755817.370,77.930,142,121,65
401912.050,5755817.440,77.930,142,121,64
401911.830,5755817.010,77.920,147,124,66
401911.890,5755817.070,77.900,148,126,69
401911.950,5755817.190,77.970,148,126,70
401912.010,5755817.220,77.910,142,121,66
401912.080,5755817.350,78.000,139,118,64
401912.130,5755817.430,78.000,140,119,63
401911.950,5755816.980,77.860,144,122,65
401912.020,5755817.100,77.930,139,118,64
401912.090,5755817.190,77.950,137,116,63
