//X,Y,Z,R,G,B
401855.310,5755899.810,79.940,117,158,90
401855.590,5755900.230,79.900,103,145,74
401855.510,5755900.170,79.850,106,147,79
401855.450,5755900.100,79.850,90,131,68
401855.400,5755900.040,79.870,84,123,66
401855.340,5755899.980,79.860,85,125,69
401855.290,5755899.920,79.890,104,143,82
401855.570,5755900.350,79.850,100,141,74
401855.500,5755900.290,79.820,111,151,77
401855.430,5755900.220,79.790,100,139,70
401855.380,5755900.160,79.800,87,129,66
401855.320,5755900.100,79.810,106,145,81
401855.290,5755900.040,79.900,89,127,70
401855.490,5755900.410,79.800,85,123,61
401855.430,5755900.340,79.790,78,117,60
401855.360,5755900.280,79.770,88,128,73
401855.300,5755900.210,79.770,119,159,91
401855.250,5755900.150,79.800,135,174,97
401855.230,5755900.100,79.900,113,150,87
401855.480,5755900.530,79.810,110,147,81
401855.430,5755900.460,79.790,91,127,73
401855.360,5755900.400,79.770,80,117,71
401855.290,5755900.330,79.740,104,142,94
401855.240,5755900.270,79.750,112,151,91
401855.200,5755900.220,79.840,118,158,92
401855.160,5755900.160,79.910,112,148,90
401855.420,5755900.580,79.800,119,156,94
401855.360,5755900.510,79.760,128,162,102
401855.290,5755900.440,79.740,105,143,89
401855.220,5755900.380,79.720,101,143,94
401855.170,5755900.320,79.740,114,156,101
401855.420,5755900.700,79.820,124,164,98
401855.350,5755900.640,79.800,131,171,102
401855.290,5755900.570,79.760,145,184,105
401855.230,5755900.510,79.760,141,181,106
401855.160,5755900.440,79.730,128,169,106
401855.100,5755900.380,79.730,109,149,92
401855.090,5755900.330,79.880,105,146,93
401855.350,5755900.760,79.790,136,176,103
401855.290,5755900.690,79.800,139,179,101
401855.240,5755900.630,79.790,141,180,100
401855.170,5755900.570,79.760,132,172,90
401855.100,5755900.500,79.740,129,169,92
401855.050,5755900.440,79.750,110,151,84
401855.340,5755900.880,79.780,122,161,98
401855.280,5755900.820,79.790,116,155,83
401855.230,5755900.760,79.810,119,156,80
401855.180,5755900.690,79.810,121,155,83
401855.120,5755900.630,79.800,112,150,76
401855.060,5755900.560,79.790,124,163,87
401855.020,5755900.510,79.870,126,166,98
401855.270,5755900.930,79.750,110,146,86
401855.200,5755900.870,79.720,98,135,73
401855.160,5755900.810,79.780,96,133,71
401855.100,5755900.750,79.760,117,150,86
401855.040,5755900.680,79.740,117,153,85
401854.980,5755900.620,79.750,104,141,76
401855.260,5755901.060,79.740,108,145,90
401855.210,5755900.990,79.760,129,160,105
401855.150,5755900.930,79.750,121,153,90
401855.090,5755900.870,79.760,99,130,74
401855.030,5755900.810,79.760,88,120,66
401854.980,5755900.740,79.740,97,136,74
401855.190,5755901.110,79.710,116,154,91
401855.130,5755901.050,79.710,129,163,103
401855.080,5755900.990,79.720,121,154,90
401855.020,5755900.930,79.740,85,120,64
401854.970,5755900.870,79.760,62,100,54
401854.920,5755900.800,79.770,84,127,76
401855.190,5755901.230,79.700,146,184,108
401855.130,5755901.170,79.720,150,188,108
401855.070,5755901.110,79.730,142,179,104
401855.020,5755901.050,79.750,132,169,97
401854.970,5755900.990,79.760,128,167,99
401854.910,5755900.930,79.770,113,151,92
401854.860,5755900.860,79.750,104,147,91
401855.130,5755901.300,79.720,148,186,107
401855.070,5755901.230,79.740,129,168,92
401855.020,5755901.170,79.750,134,170,100
401854.970,5755901.110,79.780,127,164,93
401854.920,5755901.050,79.810,136,174,99
401854.860,5755900.990,79.810,135,172,105
401855.070,5755901.350,79.720,145,186,110
401855.010,5755901.290,79.740,119,159,94
401854.960,5755901.230,79.770,114,150,94
401854.910,5755901.170,79.790,114,150,91
401854.860,5755901.110,79.820,118,155,90
401854.800,5755901.050,79.830,121,159,98
401855.090,5755901.480,79.820,149,190,114
401855.030,5755901.420,79.820,141,182,109
401854.970,5755901.360,79.800,128,169,105
401854.910,5755901.290,79.810,120,160,104
401854.850,5755901.230,79.800,122,158,101
401854.800,5755901.170,79.840,110,146,89
401854.750,5755901.110,79.850,118,153,98
401855.040,5755901.540,79.850,147,187,114
401854.980,5755901.480,79.840,135,176,102
401854.900,5755901.420,79.800,119,161,92
401854.850,5755901.350,79.810,124,165,104
401854.790,5755901.290,79.800,122,159,103
401854.740,5755901.230,79.830,113,150,94
401855.000,5755901.610,79.930,147,184,114
401854.930,5755901.540,79.880,146,187,112
401854.850,5755901.480,79.820,130,171,100
401854.780,5755901.410,79.800,134,170,107
401854.720,5755901.350,79.780,126,163,103
401854.670,5755901.290,79.820,122,158,102
401854.810,5755901.540,79.890,141,176,107
401854.730,5755901.470,79.830,128,157,96
401854.660,5755901.400,79.800,118,150,90
401854.760,5755901.600,79.940,154,184,112
401854.690,5755901.530,79.900,118,147,86
401854.610,5755901.460,79.820,106,141,89
401854.650,5755901.590,79.950,124,159,96
401854.430,5755901.830,80.060,154,176,115
401854.520,5755902.620,80.210,127,163,112
401854.510,5755902.740,80.190,122,153,104
401854.470,5755902.680,80.240,137,171,115
401854.470,5755902.800,80.230,117,149,98
401854.470,5755902.920,80.270,143,173,118
401854.390,5755902.980,80.230,137,173,111
401854.350,5755902.910,80.250,156,190,126
401854.340,5755903.030,80.260,126,159,103
401854.170,5755902.850,80.250,142,167,121
401854.110,5755902.910,80.270,132,163,114
401851.700,5755908.280,80.320,24,45,32
401851.690,5755908.160,80.340,26,47,34
401851.750,5755908.220,80.330,22,43,31
401851.750,5755908.100,80.340,21,40,29
401851.800,5755908.160,80.350,20,40,29
401851.800,5755908.030,80.360,14,30,22
401851.860,5755908.100,80.350,13,28,20
401851.800,5755907.910,80.370,8,25,18
401851.840,5755907.980,80.390,6,21,15
401851.900,5755908.040,80.380,12,28,20
401851.940,5755908.100,80.420,26,44,33
401852.020,5755908.160,80.400,25,44,33
401852.040,5755908.230,80.450,16,35,26
401851.830,5755907.860,80.420,15,31,24
401851.890,5755907.920,80.400,13,29,22
401851.960,5755907.980,80.390,15,32,23
401852.010,5755908.040,80.410,16,34,23
401852.080,5755908.100,80.390,15,33,22
401852.100,5755908.170,80.460,10,29,19
401851.860,5755907.800,80.460,23,41,33
401851.920,5755907.860,80.450,17,34,26
401852.000,5755907.920,80.430,18,36,26
401852.070,5755907.980,80.420,17,36,25
401852.130,5755908.040,80.420,17,37,24
401851.940,5755907.740,80.440,23,44,33
401851.990,5755907.800,80.440,26,47,35
401852.050,5755907.860,80.430,28,48,37
401852.120,5755907.920,80.430,32,54,40
401852.120,5755907.800,80.420,29,50,38
401863.860,5755880.920,80.400,24,47,31
401863.810,5755881.070,80.210,28,53,34
401863.750,5755880.990,80.250,33,59,36
401863.680,5755880.870,80.350,45,70,40
401863.630,5755880.810,80.330,57,84,47
401863.740,5755881.100,80.260,31,54,33
401863.680,5755881.030,80.270,53,77,50
401863.620,5755880.960,80.290,69,95,62
401863.570,5755880.930,80.220,59,89,54
401863.670,5755881.110,80.340,49,69,44
401863.610,5755881.060,80.320,78,98,66
401863.560,5755881.040,80.250,72,95,62
401863.510,5755881.010,80.170,61,88,54
401863.610,5755881.200,80.300,39,60,37
401863.560,5755881.160,80.250,44,64,39
401863.500,5755881.120,80.190,42,65,38
401863.450,5755881.070,80.170,44,69,39
401863.490,5755881.230,80.210,21,43,24
401863.440,5755881.200,80.140,29,51,28
401863.390,5755881.320,80.030,25,46,24
401863.330,5755881.380,80.000,62,84,44
401863.360,5755881.700,79.990,30,47,29
401863.310,5755881.680,79.890,42,58,35
401863.260,5755881.600,79.940,59,79,44
401863.350,5755881.820,79.990,44,64,36
401863.290,5755881.750,80.000,51,73,40
401863.240,5755881.710,79.960,68,90,49
401863.340,5755881.920,80.040,44,66,33
401863.280,5755881.860,80.020,68,91,45
401863.230,5755881.790,80.020,89,115,61
401863.180,5755881.730,80.030,91,118,60
401863.330,5755882.050,80.020,47,70,34
401863.270,5755881.950,80.080,64,87,41
401863.220,5755881.890,80.070,92,118,57
401863.170,5755881.820,80.090,102,130,68
401863.390,5755882.260,79.980,60,89,41
401863.330,5755882.170,80.010,47,73,31
401863.260,5755882.040,80.140,63,88,41
401863.200,5755881.960,80.170,88,112,53
401863.150,5755881.890,80.170,105,131,64
401863.380,5755882.410,79.930,72,99,46
401863.320,5755882.300,80.000,54,80,33
401863.260,5755882.210,80.040,67,91,41
401863.200,5755882.120,80.090,86,113,52
401863.140,5755882.020,80.150,98,123,59
401863.310,5755882.430,79.980,58,84,35
401863.250,5755882.350,80.010,72,96,43
401863.190,5755882.250,80.070,95,119,58
401863.130,5755882.150,80.130,102,130,63
401863.060,5755882.040,80.230,106,133,65
401863.240,5755882.460,80.040,81,104,50
401863.250,5755882.650,79.910,86,107,54
401863.180,5755882.720,79.890,96,116,62
401863.170,5755882.790,79.980,95,121,65
401863.150,5755882.830,80.130,90,117,59
401863.090,5755882.780,80.110,98,127,68
401863.040,5755882.730,80.080,102,130,69
401863.140,5755882.920,80.190,96,124,61
401863.080,5755882.870,80.160,99,128,61
401863.020,5755882.810,80.160,107,134,73
401862.970,5755882.730,80.170,104,133,73
401863.070,5755882.930,80.260,93,122,60
401863.010,5755882.880,80.240,81,111,47
401862.960,5755882.830,80.210,92,120,57
401862.900,5755882.770,80.210,100,131,69
401862.840,5755882.670,80.270,92,123,61
401863.000,5755882.960,80.320,88,117,55
401862.940,5755882.900,80.300,79,109,46
401862.890,5755882.850,80.260,89,117,53
401862.830,5755882.780,80.270,92,121,61
401862.770,5755882.710,80.290,76,106,48
401862.930,5755882.990,80.350,77,105,44
401862.870,5755882.920,80.370,81,110,46
401862.820,5755882.860,80.350,89,118,54
401862.760,5755882.790,80.370,85,115,55
401862.860,5755883.020,80.380,75,105,44
401862.800,5755882.940,80.420,77,106,47
401862.750,5755882.900,80.380,87,115,55
401862.970,5755883.280,80.370,95,123,58
401862.680,5755882.920,80.440,97,123,63
401862.900,5755883.320,80.390,92,119,56
401862.840,5755883.370,80.400,94,121,60
401862.840,5755883.520,80.350,103,130,70
401862.780,5755883.430,80.400,95,124,64
401862.660,5755883.270,80.460,80,109,52
401862.830,5755883.640,80.360,104,128,65
401862.770,5755883.560,80.380,93,121,61
401862.710,5755883.480,80.410,87,116,57
401862.650,5755883.380,80.460,84,113,58
401862.590,5755883.320,80.470,80,109,55
401862.760,5755883.690,80.370,95,121,58
401862.700,5755883.610,80.400,80,112,52
401862.650,5755883.530,80.410,77,106,50
401862.590,5755883.450,80.450,95,121,63
401862.530,5755883.360,80.500,96,123,65
401862.700,5755883.750,80.360,82,109,49
401862.640,5755883.690,80.350,85,116,55
401862.590,5755883.620,80.370,89,121,59
401862.530,5755883.520,80.420,90,120,61
401862.460,5755883.420,80.500,76,103,48
401862.630,5755883.770,80.420,81,108,49
401862.580,5755883.730,80.370,90,118,59
401862.520,5755883.660,80.390,90,117,61
401862.460,5755883.600,80.380,85,114,60
401862.400,5755883.510,80.440,69,98,45
401862.510,5755883.760,80.420,98,123,64
401862.450,5755883.690,80.430,86,113,57
401862.390,5755883.610,80.470,82,112,57
401862.440,5755883.790,80.470,93,119,62
401862.390,5755883.740,80.450,87,116,59
401862.330,5755883.660,80.470,85,117,60
401862.320,5755883.770,80.490,93,122,65
401862.390,5755884.680,80.380,89,115,56
401862.110,5755884.290,80.480,91,115,58
401862.240,5755885.010,80.420,90,113,62
401862.180,5755885.070,80.400,95,119,62
401862.100,5755885.350,80.430,80,106,49
401861.870,5755885.900,80.400,97,125,71
401861.810,5755885.930,80.430,89,120,62
401861.760,5755885.880,80.410,83,109,53
401861.800,5755886.010,80.490,95,121,64
401861.750,5755885.930,80.510,85,114,53
401861.700,5755885.880,80.490,73,98,43
401861.640,5755885.880,80.400,79,98,46
401861.690,5755885.990,80.510,99,122,62
401861.630,5755885.930,80.500,87,107,49
401861.580,5755885.910,80.440,90,105,50
401861.510,5755885.910,80.520,103,118,58
401861.390,5755885.840,80.610,106,129,58
401861.310,5755887.030,80.440,94,122,63
401860.750,5755888.300,80.300,109,134,80
401860.690,5755888.230,80.300,80,109,59
401860.630,5755888.240,80.210,68,98,52
401860.680,5755888.440,80.190,77,109,51
401860.630,5755888.330,80.250,71,101,51
401860.570,5755888.250,80.270,81,111,65
401860.520,5755888.200,80.250,85,113,64
401860.470,5755888.150,80.230,99,125,73
401860.620,5755888.440,80.260,75,109,59
401860.560,5755888.370,80.270,77,110,60
401860.510,5755888.320,80.250,89,122,72
401860.460,5755888.280,80.220,78,110,58
401860.400,5755888.190,80.250,96,123,73
401860.610,5755888.570,80.250,90,123,68
401860.550,5755888.540,80.190,89,122,71
401860.500,5755888.470,80.200,83,116,65
401860.440,5755888.380,80.240,77,109,59
401860.390,5755888.310,80.260,86,117,65
401860.340,5755888.240,80.260,105,136,84
401860.600,5755888.690,80.240,96,125,73
401860.550,5755888.620,80.250,95,123,71
401860.490,5755888.600,80.190,77,105,54
401860.430,5755888.530,80.200,66,96,45
401860.380,5755888.450,80.220,73,103,54
401860.330,5755888.370,80.240,96,125,73
401860.540,5755888.820,80.150,101,124,73
401860.480,5755888.710,80.200,90,117,62
401860.430,5755888.620,80.230,71,100,47
401860.370,5755888.560,80.230,67,97,43
401860.310,5755888.480,80.250,88,120,63
401860.270,5755888.400,80.280,108,139,85
401860.470,5755888.940,80.070,99,112,61
401860.420,5755888.750,80.220,89,113,56
401860.360,5755888.660,80.260,75,105,50
401860.470,5755889.090,80.020,73,85,41
401860.410,5755889.010,80.050,94,107,58
401860.350,5755888.960,80.040,90,115,57
401860.300,5755888.840,80.100,72,104,47
401860.400,5755889.170,80.000,59,77,38
401860.340,5755889.090,80.030,85,104,56
401860.290,5755889.030,80.010,75,103,49
401860.230,5755888.930,80.060,76,109,54
401860.340,5755889.250,79.970,55,76,35
401860.280,5755889.200,79.950,60,81,36
401860.220,5755889.150,79.940,66,92,44
401860.160,5755889.090,79.930,92,121,71
401860.330,5755889.400,79.930,51,78,35
401860.270,5755889.340,79.930,67,92,48
401860.210,5755889.240,79.970,68,96,52
401860.160,5755889.180,79.960,78,107,59
401860.100,5755889.120,79.960,102,133,82
401860.260,5755889.470,79.920,70,101,47
401860.210,5755889.380,79.940,89,116,66
401860.260,5755889.520,80.000,73,109,48
401860.200,5755889.480,79.960,81,114,53
401863.640,5755880.850,80.350,43,56,34
401863.590,5755880.790,80.330,52,75,45
401863.610,5755880.910,80.290,50,64,39
401863.570,5755880.850,80.270,47,71,39
401863.620,5755881.030,80.270,60,81,50
401863.600,5755880.970,80.210,54,79,47
401863.590,5755880.910,80.130,48,75,39
401863.580,5755881.090,80.230,50,77,46
401863.570,5755881.030,80.170,54,83,47
401863.550,5755880.970,80.100,49,75,38
401863.540,5755881.150,80.200,38,63,38
401862.400,5755883.670,80.510,75,102,47
401862.400,5755884.220,80.360,79,103,46
401862.340,5755884.160,80.360,87,110,54
401862.240,5755884.080,80.450,72,98,45
401862.450,5755884.410,80.360,102,123,62
401862.390,5755884.340,80.360,94,118,58
401862.340,5755884.280,80.350,83,107,52
401862.270,5755884.210,80.360,84,107,53
401862.200,5755884.140,80.410,79,103,49
401862.310,5755884.400,80.390,105,127,68
401862.240,5755884.330,80.410,93,119,63
401862.210,5755884.270,80.350,81,107,51
401862.150,5755884.210,80.360,76,100,48
401862.200,5755884.440,80.450,100,123,69
401862.170,5755884.390,80.410,89,114,61
401862.130,5755884.330,80.390,77,102,48
401862.100,5755884.440,80.420,81,104,55
401862.060,5755884.380,80.390,70,96,44
401862.200,5755884.690,80.440,72,95,43
401862.140,5755884.620,80.440,69,93,44
401862.090,5755884.560,80.440,65,90,42
401862.040,5755884.500,80.420,72,96,47
401862.000,5755884.440,80.390,67,94,44
401862.290,5755884.880,80.370,98,120,65
401862.210,5755884.810,80.410,94,115,61
401862.150,5755884.750,80.420,88,111,55
401862.080,5755884.680,80.440,72,96,45
401862.010,5755884.620,80.460,58,83,35
401861.980,5755884.560,80.420,55,80,32
401862.210,5755884.940,80.400,91,112,60
401862.150,5755884.870,80.400,89,109,57
401862.090,5755884.810,80.410,82,107,52
401862.030,5755884.740,80.420,80,106,53
401861.970,5755884.680,80.420,76,99,47
401861.920,5755884.620,80.410,72,93,42
401862.220,5755885.060,80.380,83,107,52
401862.150,5755884.990,80.400,93,109,57
401862.100,5755884.930,80.390,90,107,54
401862.030,5755884.870,80.400,78,103,47
401861.980,5755884.800,80.400,72,97,45
401861.920,5755884.740,80.400,74,98,48
401862.150,5755885.120,80.380,88,113,59
401862.080,5755885.050,80.410,97,118,62
401862.030,5755884.990,80.390,94,114,60
401861.970,5755884.920,80.410,79,106,49
401861.870,5755884.850,80.470,76,103,46
401862.150,5755885.240,80.380,78,103,45
401862.090,5755885.170,80.380,93,117,60
401862.020,5755885.110,80.400,94,120,63
401861.970,5755885.050,80.390,88,112,57
401861.900,5755884.980,80.410,81,110,55
401861.810,5755884.910,80.470,77,104,48
401862.090,5755885.300,80.370,69,93,36
401862.020,5755885.230,80.380,87,112,54
401861.960,5755885.170,80.400,91,117,59
401861.910,5755885.100,80.390,94,119,61
401861.830,5755885.040,80.420,93,118,60
401861.900,5755885.210,80.390,89,114,58
401861.840,5755885.150,80.390,98,124,66
401861.710,5755885.080,80.520,97,122,62
401861.780,5755885.210,80.400,88,110,50
401861.710,5755885.260,80.400,103,121,55
401861.640,5755885.320,80.410,98,119,56
401861.150,5755887.220,80.430,82,106,53
401861.040,5755887.130,80.520,71,96,44
401861.210,5755887.370,80.320,91,112,60
401861.160,5755887.310,80.300,76,99,50
401860.990,5755887.200,80.500,70,91,44
401861.160,5755887.430,80.290,68,88,39
401861.120,5755887.370,80.270,70,88,41
401860.870,5755887.190,80.490,83,102,55
401861.100,5755887.490,80.280,66,87,40
401861.040,5755887.430,80.290,75,95,48
401860.800,5755887.250,80.500,84,102,56
401861.090,5755887.600,80.290,52,75,35
401861.040,5755887.540,80.280,70,93,47
401861.040,5755887.670,80.260,66,89,43
401860.990,5755887.600,80.250,65,87,43
401860.860,5755887.510,80.380,64,86,42
401860.990,5755887.730,80.240,79,103,51
401860.930,5755887.670,80.240,64,87,42
401860.850,5755887.590,80.290,61,84,38
401860.710,5755887.490,80.420,60,84,37
401861.000,5755887.900,80.290,90,115,62
401860.980,5755887.850,80.240,85,109,55
401860.920,5755887.790,80.240,68,95,45
401860.880,5755887.730,80.230,59,86,39
401860.810,5755887.660,80.230,59,85,38
401860.660,5755887.550,80.410,70,93,41
401860.970,5755887.970,80.240,85,110,59
401860.910,5755887.900,80.260,87,110,59
401860.860,5755887.840,80.250,71,98,48
401860.810,5755887.780,80.230,63,93,43
401860.750,5755887.720,80.230,63,88,42
401860.910,5755888.030,80.240,87,114,64
401860.870,5755887.970,80.210,79,108,58
401860.820,5755887.910,80.200,69,98,49
401860.760,5755887.850,80.200,72,100,51
401860.720,5755887.790,80.170,81,105,55
401860.660,5755887.730,80.170,90,115,62
401860.590,5755887.650,80.200,89,116,63
401860.840,5755888.090,80.240,76,106,60
401860.790,5755888.030,80.220,65,96,47
401860.740,5755887.960,80.230,69,97,49
401860.690,5755887.900,80.220,86,112,62
401860.640,5755887.840,80.200,91,116,65
401860.600,5755887.780,80.170,95,116,67
401860.840,5755888.210,80.230,92,124,77
401860.780,5755888.150,80.230,83,113,67
401860.730,5755888.090,80.230,76,105,56
401860.630,5755887.960,80.200,103,125,78
401860.580,5755887.900,80.190,96,120,69
401860.530,5755887.840,80.170,101,125,73
401860.780,5755888.270,80.220,79,111,63
401860.710,5755888.200,80.240,67,98,50
401860.650,5755888.140,80.240,67,96,47
401860.760,5755888.390,80.250,78,105,55
401860.710,5755888.320,80.240,71,102,54
401860.600,5755888.200,80.230,62,90,41
401860.550,5755888.130,80.230,81,106,51
401860.690,5755888.440,80.260,78,112,57
401860.630,5755888.380,80.250,62,93,44
401860.570,5755888.310,80.270,55,82,36
401860.510,5755888.240,80.280,65,92,47
401860.460,5755888.180,80.270,83,109,57
401860.700,5755888.570,80.220,80,113,54
401860.640,5755888.510,80.230,69,104,46
401860.590,5755888.440,80.230,59,91,38
401860.520,5755888.370,80.250,75,102,53
401860.470,5755888.310,80.240,74,101,54
401860.640,5755888.620,80.220,87,118,62
401860.580,5755888.560,80.230,77,109,52
401860.520,5755888.490,80.240,69,101,46
401860.430,5755888.420,80.290,77,103,52
401860.630,5755888.740,80.220,90,112,65
401860.580,5755888.680,80.210,90,119,68
401860.500,5755888.600,80.260,77,106,56
401860.470,5755888.560,80.200,83,108,59
401860.580,5755888.810,80.210,95,110,63
401860.530,5755888.740,80.190,87,109,58
401860.460,5755888.670,80.220,74,99,52
401860.430,5755888.620,80.170,59,80,39
401860.310,5755888.530,80.270,79,98,48
401860.530,5755888.840,80.070,82,102,48
401860.450,5755888.760,80.110,67,88,41
401860.370,5755888.690,80.150,44,64,27
401860.260,5755888.600,80.240,62,84,36
401860.530,5755888.970,80.060,78,96,46
401860.470,5755888.900,80.060,77,97,47
401860.400,5755888.830,80.090,63,87,38
401860.320,5755888.750,80.130,59,81,37
401860.200,5755888.650,80.240,72,97,46
401860.500,5755889.040,80.010,65,87,42
401860.440,5755888.980,80.000,65,86,41
401860.330,5755888.880,80.100,70,93,42
401860.350,5755888.860,79.960,72,97,44
401860.150,5755888.720,80.220,76,103,47
401860.470,5755889.120,79.940,48,68,32
401860.380,5755889.030,80.000,66,88,42
401860.320,5755888.970,80.010,74,97,44
401860.260,5755888.900,80.010,74,98,44
401860.200,5755888.840,80.010,75,102,46
401860.120,5755888.760,80.040,90,120,58
401860.400,5755889.170,79.950,55,72,35
401860.280,5755889.070,80.070,75,96,47
401860.230,5755889.010,80.040,78,101,47
401860.180,5755888.960,80.020,74,98,46
401860.130,5755888.890,80.010,86,113,58
401860.370,5755889.280,79.980,24,40,16
401860.290,5755889.200,80.020,55,72,34
401860.210,5755889.130,80.060,75,93,43
401860.150,5755889.060,80.070,94,115,58
401860.070,5755888.990,80.110,94,120,66
401860.330,5755889.360,79.930,33,52,22
401860.250,5755889.280,79.970,47,67,34
401860.170,5755889.200,80.020,70,89,48
401860.110,5755889.130,80.030,88,111,62
401860.020,5755889.050,80.080,93,122,68
401860.310,5755889.470,79.970,56,83,37
401860.260,5755889.410,79.950,59,84,39
401860.190,5755889.340,79.970,63,88,46
401860.110,5755889.260,80.010,64,87,47
401860.040,5755889.190,80.030,71,96,49
401859.980,5755889.120,80.040,74,102,50
401860.230,5755889.520,79.990,75,105,45
401860.180,5755889.460,79.980,83,112,50
401860.120,5755889.390,79.990,86,112,59
401860.050,5755889.310,80.000,85,111,60
401859.970,5755889.240,80.050,95,122,68
401860.210,5755889.620,80.020,79,112,49
401860.160,5755889.560,80.000,76,112,51
401860.100,5755889.500,80.000,74,108,47
401860.050,5755889.440,79.990,85,111,54
401859.990,5755889.370,79.990,94,121,64
401859.900,5755889.290,80.050,93,120,63
401860.150,5755889.690,80.000,76,108,49
401860.100,5755889.630,79.990,62,95,46
401860.040,5755889.560,80.000,62,92,43
401859.970,5755889.490,80.010,79,105,54
401859.920,5755889.430,80.000,81,106,50
401860.140,5755889.810,79.990,74,103,51
401860.090,5755889.750,80.000,69,98,49
401860.040,5755889.680,79.990,56,82,42
401859.970,5755889.620,80.000,55,80,36
401859.920,5755889.550,80.000,68,95,46
401859.840,5755889.470,80.040,72,98,44
401860.070,5755889.870,80.000,69,96,45
401860.030,5755889.810,79.990,67,95,47
401859.970,5755889.740,79.990,68,92,46
401859.920,5755889.680,79.990,82,105,55
401859.860,5755889.620,79.980,66,96,46
401859.810,5755889.550,79.970,62,90,39
401860.070,5755889.990,80.000,68,98,43
401860.010,5755889.920,80.010,79,104,49
401859.960,5755889.860,80.000,75,103,51
401859.910,5755889.800,79.990,73,100,48
401859.860,5755889.740,79.970,91,117,63
401859.810,5755889.680,79.950,81,110,52
401859.760,5755889.620,79.940,75,105,45
401860.010,5755890.050,79.980,76,105,55
401859.940,5755889.980,80.000,72,102,47
401859.910,5755889.930,79.960,77,106,48
401859.840,5755889.860,79.990,83,110,53
401859.800,5755889.800,79.960,84,114,53
401859.740,5755889.730,79.970,83,115,46
401859.940,5755890.110,80.000,77,101,52
401859.880,5755890.040,80.020,72,99,42
401859.840,5755889.980,79.980,78,106,42
401859.780,5755889.920,79.980,89,118,53
401859.740,5755889.860,79.950,88,119,50
401859.680,5755889.790,79.960,78,110,40
401859.810,5755890.100,80.010,89,116,56
401859.780,5755890.040,79.980,81,109,44
401859.730,5755889.980,79.960,73,105,40
401859.680,5755889.930,79.940,83,113,46
401859.820,5755890.230,79.980,84,110,52
401859.760,5755890.170,79.970,86,117,59
401859.640,5755890.030,80.010,71,100,34
401859.590,5755889.960,80.000,76,105,41
401859.310,5755891.640,79.500,49,72,33
401859.240,5755891.700,79.500,51,73,34
401859.190,5755891.630,79.510,53,67,31
401859.090,5755891.520,79.470,61,85,39
401859.030,5755891.450,79.470,41,67,26
401858.980,5755891.390,79.450,34,60,20
401859.170,5755891.760,79.500,69,96,47
401859.120,5755891.690,79.510,53,72,33
401859.080,5755891.640,79.470,64,84,37
401859.050,5755891.590,79.430,54,78,34
401858.980,5755891.520,79.450,52,78,35
401858.940,5755891.470,79.400,48,73,28
401859.220,5755891.930,79.390,66,101,42
401859.140,5755891.840,79.440,70,98,45
401859.080,5755891.770,79.450,57,83,36
401859.010,5755891.700,79.480,50,77,31
401858.910,5755891.580,79.440,56,79,35
401858.900,5755891.550,79.350,74,97,45
401859.170,5755892.020,79.480,76,112,54
401859.190,5755892.020,79.320,65,98,43
401859.130,5755891.950,79.320,69,98,44
401859.070,5755891.880,79.320,68,98,43
401859.020,5755891.830,79.300,63,96,46
401858.950,5755891.740,79.350,54,84,36
401858.880,5755891.670,79.370,65,90,40
401859.130,5755892.080,79.310,63,99,41
401859.070,5755892.010,79.310,69,102,45
401859.010,5755891.950,79.300,77,108,50
401858.930,5755891.850,79.370,66,100,45
401858.870,5755891.790,79.390,59,92,39
401858.820,5755891.730,79.360,59,89,37
401859.100,5755892.210,79.470,79,112,53
401859.080,5755892.170,79.400,84,114,52
401859.050,5755892.130,79.330,76,109,48
401858.970,5755892.040,79.380,69,102,41
401858.920,5755891.990,79.360,76,108,48
401858.840,5755891.900,79.420,63,97,39
401859.030,5755892.260,79.490,71,101,49
401859.000,5755892.220,79.420,92,120,59
401858.990,5755892.190,79.320,92,124,63
401858.900,5755892.100,79.380,78,112,50
401858.890,5755892.070,79.280,70,102,43
401858.940,5755892.280,79.410,76,101,48
401858.930,5755892.250,79.320,81,113,54
401858.820,5755892.150,79.420,80,114,51
401858.740,5755892.070,79.460,77,110,49
401858.190,5755894.260,77.650,66,66,51
401858.120,5755894.190,77.670,64,65,51
401858.170,5755894.390,77.680,77,72,51
401858.130,5755894.330,77.650,72,70,51
401858.070,5755894.260,77.640,69,68,50
401858.000,5755894.190,77.640,67,68,52
401857.940,5755894.120,77.640,62,64,51
401858.130,5755894.490,77.740,83,77,49
401858.100,5755894.440,77.670,80,75,49
401858.060,5755894.380,77.650,78,73,50
401858.000,5755894.320,77.630,75,72,51
401857.950,5755894.260,77.600,71,70,52
401857.900,5755894.200,77.580,68,67,51
401858.060,5755894.540,77.750,86,79,48
401858.030,5755894.500,77.670,83,78,49
401857.990,5755894.450,77.630,82,76,49
401857.940,5755894.400,77.600,79,74,50
401857.890,5755894.330,77.580,76,73,51
401857.830,5755894.270,77.560,75,72,52
401857.780,5755894.210,77.550,72,69,52
401857.980,5755894.590,77.760,89,81,48
401857.950,5755894.550,77.700,87,80,48
401857.920,5755894.510,77.630,85,78,48
401857.880,5755894.470,77.580,83,76,48
401857.820,5755894.400,77.580,81,75,49
401857.770,5755894.340,77.540,79,74,50
401857.720,5755894.290,77.510,77,72,51
401857.910,5755894.650,77.770,91,82,48
401857.870,5755894.610,77.720,90,81,48
401857.850,5755894.570,77.630,88,80,48
401857.810,5755894.530,77.590,85,78,48
401857.770,5755894.480,77.540,84,77,49
401857.710,5755894.410,77.530,82,76,49
401857.850,5755894.720,77.760,92,82,46
401857.800,5755894.650,77.750,91,82,46
401857.780,5755894.640,77.620,90,81,47
401857.740,5755894.590,77.590,87,79,47
401857.690,5755894.540,77.550,85,78,48
401857.890,5755894.910,77.790,96,84,46
401857.840,5755894.850,77.770,93,83,46
401857.780,5755894.780,77.760,92,82,45
401857.720,5755894.720,77.760,91,82,45
401857.670,5755894.660,77.730,90,81,46
401857.620,5755894.600,77.710,89,80,47
401857.830,5755894.990,77.760,97,85,44
401857.770,5755894.920,77.750,95,84,44
401857.600,5755894.710,77.740,91,81,46
401857.550,5755894.660,77.710,89,80,47
401857.840,5755895.130,77.730,97,85,44
401857.760,5755895.050,77.760,98,86,43
401857.700,5755894.980,77.760,96,84,44
401857.640,5755894.910,77.760,94,84,45
401857.580,5755894.830,77.770,92,83,46
401857.530,5755894.780,77.740,90,81,46
401857.740,5755895.160,77.800,98,85,45
401857.680,5755895.100,77.790,97,85,45
401857.640,5755895.050,77.740,93,84,44
401857.570,5755894.970,77.750,94,84,47
401857.520,5755894.900,77.750,93,83,47
401857.470,5755894.850,77.730,91,81,47
401857.660,5755895.210,77.810,98,85,48
401857.610,5755895.150,77.800,96,85,47
401857.550,5755895.090,77.790,92,83,46
401857.490,5755895.030,77.770,94,84,48
401857.450,5755894.970,77.750,93,83,48
401857.730,5755895.430,77.780,98,83,47
401857.650,5755895.340,77.830,96,81,46
401857.600,5755895.280,77.800,95,81,47
401857.540,5755895.220,77.790,95,82,47
401857.480,5755895.150,77.790,95,83,48
401857.420,5755895.080,77.790,94,83,48
401857.680,5755895.510,77.740,98,83,48
401857.580,5755895.400,77.820,94,79,46
401857.520,5755895.340,77.810,92,78,46
401857.470,5755895.280,77.790,93,79,47
401857.410,5755895.210,77.790,95,82,49
401857.350,5755895.140,77.790,95,82,48
401857.620,5755895.580,77.720,100,84,49
401857.530,5755895.490,77.770,96,81,49
401857.460,5755895.410,77.790,94,79,48
401857.400,5755895.340,77.800,92,79,47
401857.330,5755895.260,77.820,94,81,47
401857.540,5755895.630,77.740,101,84,48
401857.470,5755895.550,77.750,100,83,49
401857.410,5755895.480,77.750,98,82,48
401857.340,5755895.410,77.760,96,82,47
401857.270,5755895.330,77.800,95,82,47
401857.520,5755895.740,77.770,102,83,42
401857.460,5755895.680,77.760,101,83,45
401857.400,5755895.610,77.760,101,83,46
401857.350,5755895.550,77.740,100,83,46
401857.280,5755895.480,77.740,98,83,46
401857.220,5755895.410,77.750,98,84,46
401857.470,5755895.830,77.730,103,82,39
401857.410,5755895.760,77.710,103,83,42
401857.350,5755895.690,77.710,102,83,44
401857.300,5755895.640,77.680,102,84,46
401857.240,5755895.570,77.680,101,85,46
401857.470,5755895.970,77.850,106,82,31
401857.460,5755895.950,77.740,104,82,33
401857.310,5755895.790,77.640,102,83,43
401857.260,5755895.740,77.590,103,85,45
401857.200,5755895.670,77.610,102,85,45
401857.410,5755896.030,77.980,111,86,29
401857.260,5755895.870,77.900,105,82,33
401857.270,5755895.880,77.730,103,81,34
401857.240,5755895.850,77.650,102,83,38
401857.350,5755896.110,77.960,109,83,27
401857.290,5755896.040,77.960,110,84,28
401857.120,5755895.850,77.920,104,82,31
401857.340,5755896.240,77.960,99,76,21
401857.290,5755896.170,77.950,103,77,22
401857.210,5755896.090,77.970,113,83,28
401857.310,5755896.320,78.330,102,100,55
401857.260,5755896.270,78.290,85,69,28
401857.290,5755896.310,78.080,103,77,27
401857.260,5755896.280,78.010,108,83,27
401857.210,5755896.230,77.970,108,83,26
401857.140,5755896.150,77.990,117,88,29
401857.070,5755896.070,78.000,115,87,29
401857.260,5755896.380,78.700,97,121,47
401857.250,5755896.380,78.590,101,119,50
401857.220,5755896.340,78.520,99,106,58
401857.080,5755896.220,77.970,118,90,30
401857.020,5755896.150,77.970,116,88,30
401856.960,5755896.080,77.960,111,85,29
401857.150,5755896.400,78.670,88,107,46
401857.120,5755896.360,78.600,78,86,46
401856.900,5755896.160,77.930,107,82,27
401857.030,5755896.400,78.650,54,64,30
401856.930,5755896.420,78.730,54,69,27
401856.920,5755896.410,78.610,60,69,27
401856.840,5755896.450,78.780,62,83,34
401856.830,5755896.440,78.670,74,91,38
401856.820,5755897.490,78.990,120,122,61
401856.760,5755897.540,79.110,102,117,45
401856.750,5755897.530,79.010,117,136,61
401856.710,5755897.500,78.960,118,138,66
401856.750,5755897.640,79.270,92,120,42
401856.710,5755897.600,79.230,106,135,64
401856.680,5755897.570,79.170,106,136,66
401856.690,5755897.710,79.260,106,132,63
401856.640,5755897.650,79.250,112,142,80
401856.570,5755897.580,79.250,100,135,75
401856.660,5755897.810,79.310,92,115,54
401856.600,5755897.730,79.320,96,125,61
401856.480,5755897.600,79.320,87,120,62
401856.590,5755897.850,79.330,81,105,51
401856.530,5755897.790,79.330,85,113,55
401856.550,5755897.930,79.420,87,116,61
401856.510,5755897.900,79.360,95,121,63
401856.440,5755897.810,79.390,102,128,71
401856.280,5755897.630,79.340,79,111,57
401856.540,5755898.060,79.400,92,124,71
401856.470,5755897.970,79.440,92,125,68
401856.410,5755897.910,79.440,103,131,66
401856.350,5755897.840,79.450,111,135,75
401856.530,5755898.170,79.410,89,118,60
401856.460,5755898.100,79.420,100,132,74
401856.400,5755898.010,79.460,90,125,65
401856.330,5755897.930,79.490,97,128,59
401856.440,5755898.200,79.470,95,126,68
401856.380,5755898.120,79.490,90,126,60
401856.310,5755898.040,79.510,86,119,54
401856.250,5755897.970,79.530,85,118,52
401856.460,5755898.350,79.540,89,121,68
401856.390,5755898.270,79.560,91,122,67
401856.350,5755898.210,79.550,88,124,64
401856.280,5755898.130,79.570,76,115,51
401856.230,5755898.070,79.560,64,100,37
401856.180,5755898.020,79.540,61,94,31
401856.120,5755897.950,79.540,71,101,37
401856.390,5755898.400,79.550,83,116,63
401856.310,5755898.280,79.630,79,111,56
401856.260,5755898.230,79.610,85,120,63
401856.160,5755898.130,79.570,62,95,40
401856.110,5755898.070,79.550,56,88,33
401856.320,5755898.450,79.560,78,108,57
401856.240,5755898.490,79.590,76,104,51
401856.020,5755898.350,79.710,96,123,61
401856.210,5755898.680,79.790,81,111,58
401856.160,5755898.630,79.770,79,109,50
401856.120,5755898.590,79.740,80,109,51
401856.070,5755898.550,79.690,75,104,46
401856.030,5755898.490,79.680,80,108,48
401855.960,5755898.400,79.710,91,118,57
401856.200,5755898.800,79.790,88,114,59
401856.150,5755898.750,79.780,87,117,57
401856.100,5755898.690,79.760,87,117,57
401856.060,5755898.660,79.720,82,112,57
401856.000,5755898.600,79.710,70,101,46
401855.950,5755898.530,79.710,72,103,45
401856.180,5755898.900,79.840,77,105,50
401856.130,5755898.850,79.800,71,101,44
401856.080,5755898.800,79.780,82,110,47
401856.040,5755898.760,79.750,95,123,57
401855.990,5755898.700,79.740,87,117,56
401855.940,5755898.640,79.740,77,109,47
401855.890,5755898.590,79.710,77,110,43
401856.090,5755898.930,79.880,69,104,48
401856.050,5755898.880,79.850,67,99,43
401856.000,5755898.830,79.820,85,113,49
401855.950,5755898.790,79.790,82,113,48
401855.910,5755898.740,79.770,68,101,42
401855.870,5755898.690,79.750,60,94,35
401855.820,5755898.650,79.710,62,95,35
401856.080,5755899.040,79.900,80,118,57
401856.030,5755898.980,79.890,66,104,51
401855.980,5755898.940,79.860,57,91,41
401855.940,5755898.900,79.810,62,93,39
401855.900,5755898.860,79.770,67,99,40
401855.850,5755898.810,79.740,62,95,39
401855.800,5755898.760,79.730,56,90,36
401855.970,5755899.050,79.870,55,89,41
401855.920,5755899.000,79.840,46,77,33
401855.870,5755898.950,79.830,52,82,32
401855.830,5755898.920,79.780,72,104,44
401855.800,5755898.890,79.710,77,112,49
401855.760,5755898.860,79.670,65,102,41
401855.890,5755899.090,79.900,68,98,50
401855.840,5755899.040,79.880,61,91,47
401855.800,5755899.000,79.840,63,91,39
401855.760,5755898.970,79.780,81,111,48
401855.480,5755899.530,79.940,73,110,47
401855.420,5755899.590,79.940,62,100,38
401863.760,5755880.870,80.360,80,120,81
401863.680,5755880.890,80.300,74,118,74
401863.610,5755880.800,80.230,90,129,82
401863.430,5755881.760,79.640,29,52,37
401863.390,5755881.720,79.690,33,58,38
401863.340,5755881.670,79.720,39,66,41
401863.290,5755881.620,79.750,43,70,43
401863.250,5755881.570,79.770,48,78,44
401863.470,5755881.920,79.590,36,59,40
401863.420,5755881.860,79.610,39,61,45
401863.370,5755881.810,79.630,45,67,48
401863.330,5755881.780,79.690,58,88,57
401863.280,5755881.730,79.730,74,104,62
401863.240,5755881.700,79.790,77,106,60
401863.360,5755881.920,79.610,50,70,50
401863.300,5755881.860,79.610,57,81,52
401863.270,5755881.840,79.700,79,113,67
401863.230,5755881.810,79.770,108,140,86
401863.200,5755881.790,79.850,120,151,91
401863.180,5755881.790,79.990,120,153,89
401863.150,5755881.760,80.040,123,156,89
401863.310,5755882.010,79.670,59,80,52
401863.250,5755881.950,79.670,73,98,58
401863.230,5755881.940,79.770,94,126,72
401863.190,5755881.910,79.850,111,145,86
401863.180,5755881.920,80.000,129,162,99
401863.150,5755881.910,80.100,124,158,91
401863.110,5755881.860,80.120,125,160,91
401863.370,5755882.190,79.670,97,121,71
401863.330,5755882.170,79.740,66,85,54
401863.270,5755882.100,79.730,61,82,51
401863.200,5755882.010,79.690,85,111,68
401863.180,5755882.020,79.830,103,135,79
401863.190,5755882.060,80.030,113,148,86
401863.150,5755882.020,80.070,123,159,94
401863.130,5755882.030,80.220,120,155,87
401863.350,5755882.320,79.810,106,126,74
401863.290,5755882.260,79.810,79,97,63
401863.240,5755882.200,79.820,75,94,60
401863.170,5755882.130,79.810,89,115,71
401863.150,5755882.120,79.910,98,128,74
401863.120,5755882.110,80.000,103,136,76
401863.120,5755882.140,80.200,104,141,77
401863.300,5755882.400,79.850,118,138,83
401863.220,5755882.310,79.780,109,128,82
401863.180,5755882.270,79.820,103,124,78
401863.130,5755882.220,79.860,108,134,84
401863.100,5755882.200,79.950,117,142,87
401863.110,5755882.240,80.170,113,140,80
401863.070,5755882.200,80.220,106,142,77
401863.260,5755882.490,79.920,133,157,95
401863.180,5755882.390,79.840,137,158,97
401863.110,5755882.320,79.810,127,149,92
401863.090,5755882.310,79.930,113,139,85
401863.050,5755882.290,80.010,116,142,87
401863.050,5755882.300,80.170,116,144,85
401863.000,5755882.260,80.200,107,142,81
401863.050,5755882.380,79.810,132,152,97
401863.030,5755882.370,79.930,118,140,89
401862.990,5755882.340,79.990,111,140,83
401862.960,5755882.310,80.070,97,131,75
401863.020,5755882.490,79.920,134,160,99
401863.000,5755882.480,80.040,118,143,86
401862.960,5755882.450,80.110,108,137,78
401862.910,5755882.390,80.110,102,136,78
401862.940,5755882.550,80.070,136,167,105
401862.890,5755882.500,80.080,123,154,91
401862.860,5755882.480,80.170,112,143,82
401862.840,5755882.560,80.100,124,160,90
401862.840,5755882.710,80.290,117,157,88
401862.770,5755882.630,80.260,113,147,79
401862.800,5755882.800,80.360,116,157,90
401862.760,5755882.870,80.420,121,162,95
401862.980,5755883.340,80.240,111,139,77
401862.950,5755883.310,80.320,115,144,81
401862.910,5755883.280,80.380,123,152,92
401862.910,5755883.390,80.240,124,151,84
401862.880,5755883.360,80.300,125,149,84
401862.850,5755883.340,80.380,108,141,82
401862.800,5755883.290,80.410,113,148,87
401862.750,5755883.240,80.440,101,134,73
401862.700,5755883.180,80.440,101,135,77
401862.650,5755883.130,80.470,109,146,85
401862.900,5755883.500,80.200,125,159,95
401862.860,5755883.460,80.240,126,157,91
401862.800,5755883.400,80.260,125,151,93
401862.750,5755883.350,80.280,97,133,77
401862.730,5755883.340,80.390,104,144,84
401862.690,5755883.290,80.430,105,140,77
401862.630,5755883.230,80.430,94,130,70
401862.570,5755883.170,80.430,93,131,74
401862.850,5755883.580,80.250,125,160,94
401862.800,5755883.520,80.260,125,160,94
401862.750,5755883.480,80.290,106,141,82
401862.650,5755883.370,80.330,99,139,81
401862.620,5755883.340,80.400,105,141,81
401862.560,5755883.280,80.400,108,141,80
401862.810,5755883.680,80.340,111,148,87
401862.770,5755883.610,80.330,124,163,99
401862.710,5755883.550,80.330,105,143,79
401862.640,5755883.480,80.320,93,132,76
401862.610,5755883.460,80.390,102,143,86
401862.560,5755883.400,80.410,114,152,95
401862.500,5755883.340,80.420,118,153,90
401862.780,5755883.770,80.410,119,154,92
401862.710,5755883.680,80.340,118,155,92
401862.660,5755883.630,80.370,112,150,87
401862.600,5755883.570,80.380,109,148,86
401862.550,5755883.510,80.380,111,151,89
401862.500,5755883.460,80.410,113,149,90
401862.440,5755883.390,80.400,104,140,83
401862.720,5755883.830,80.420,107,143,82
401862.660,5755883.760,80.390,100,137,77
401862.610,5755883.700,80.420,108,146,88
401862.480,5755883.560,80.370,115,150,89
401862.430,5755883.510,80.400,119,154,95
401862.620,5755883.830,80.440,108,143,81
401862.430,5755883.640,80.410,118,147,90
401862.380,5755883.570,80.410,112,148,87
401862.380,5755883.710,80.440,127,155,97
401862.550,5755884.010,80.450,116,144,83
401862.490,5755883.950,80.440,106,137,79
401862.440,5755883.890,80.450,96,132,76
401862.380,5755883.820,80.440,112,148,92
401862.320,5755883.760,80.430,119,151,94
401862.580,5755884.170,80.390,124,156,98
401862.530,5755884.120,80.420,115,144,82
401862.480,5755884.070,80.440,98,131,73
401862.430,5755884.000,80.440,109,140,84
401862.380,5755883.950,80.450,107,143,87
401862.320,5755883.880,80.440,109,145,88
401862.260,5755883.820,80.440,101,138,83
401862.570,5755884.280,80.370,95,133,78
401862.520,5755884.230,80.400,114,149,91
401862.460,5755884.170,80.400,117,149,85
401862.410,5755884.120,80.420,106,139,79
401862.370,5755884.060,80.440,105,137,81
401862.320,5755884.010,80.450,100,135,82
401862.260,5755883.940,80.440,85,122,67
401862.220,5755883.900,80.490,78,116,67
401862.540,5755884.360,80.310,114,149,87
401862.510,5755884.330,80.380,107,141,82
401862.450,5755884.270,80.390,108,145,85
401862.400,5755884.210,80.400,112,149,85
401862.350,5755884.160,80.420,105,141,79
401862.300,5755884.100,80.410,105,139,83
401862.240,5755884.040,80.410,105,136,82
401862.190,5755883.980,80.410,70,102,51
401862.500,5755884.450,80.380,129,164,101
401862.450,5755884.390,80.380,129,162,95
401862.390,5755884.330,80.380,101,136,73
401862.330,5755884.270,80.380,110,145,84
401862.280,5755884.210,80.400,118,151,88
401862.220,5755884.130,80.360,119,150,93
401862.170,5755884.080,80.370,131,156,100
401862.440,5755884.510,80.380,109,147,85
401862.390,5755884.450,80.390,115,150,82
401862.330,5755884.390,80.390,100,138,75
401862.270,5755884.320,80.380,122,156,95
401862.220,5755884.270,80.390,130,154,92
401862.160,5755884.210,80.390,112,140,84
401862.380,5755884.570,80.380,95,126,67
401862.330,5755884.510,80.400,109,141,79
401862.280,5755884.450,80.410,127,161,97
401862.220,5755884.390,80.410,123,155,91
401862.160,5755884.320,80.390,121,148,86
401862.100,5755884.260,80.390,98,127,70
401862.380,5755884.680,80.380,115,147,89
401862.320,5755884.620,80.380,122,148,89
401862.270,5755884.570,80.410,117,147,87
401862.220,5755884.520,80.420,128,159,99
401862.170,5755884.460,80.440,127,158,99
401862.100,5755884.390,80.400,113,145,85
401862.040,5755884.330,80.410,95,127,70
401862.320,5755884.740,80.390,123,154,97
401862.270,5755884.690,80.400,115,141,86
401862.220,5755884.640,80.430,92,122,66
401862.160,5755884.580,80.430,109,141,88
401862.120,5755884.530,80.460,117,147,91
401862.040,5755884.450,80.420,115,149,91
401862.300,5755884.840,80.330,123,157,94
401862.260,5755884.800,80.390,118,150,92
401862.210,5755884.750,80.410,113,141,90
401862.160,5755884.700,80.430,92,120,68
401862.100,5755884.640,80.430,78,112,62
401862.040,5755884.570,80.430,80,117,62
401861.980,5755884.500,80.400,94,133,78
401862.280,5755884.950,80.290,100,137,79
401862.240,5755884.900,80.340,108,144,87
401862.200,5755884.860,80.400,120,152,97
401862.150,5755884.810,80.410,131,155,105
401862.100,5755884.750,80.430,118,141,88
401862.040,5755884.690,80.430,79,112,58
401861.980,5755884.630,80.430,82,120,67
401862.220,5755885.010,80.310,96,133,77
401862.180,5755884.970,80.360,114,148,96
401862.150,5755884.930,80.420,129,156,102
401862.090,5755884.870,80.430,128,151,97
401862.040,5755884.810,80.430,112,139,83
401861.980,5755884.750,80.430,86,119,65
401861.920,5755884.690,80.440,78,116,60
401862.170,5755885.080,80.340,122,153,92
401862.130,5755885.040,80.400,112,142,84
401862.090,5755884.990,80.440,115,147,87
401862.030,5755884.930,80.430,124,156,91
401861.980,5755884.870,80.430,130,162,99
401861.910,5755884.800,80.420,124,157,98
401861.860,5755884.740,80.420,114,149,90
401862.150,5755885.180,80.280,133,166,100
401862.110,5755885.140,80.350,122,157,92
401862.080,5755885.110,80.420,117,150,85
401862.020,5755885.040,80.410,122,155,93
401861.960,5755884.980,80.410,132,162,99
401861.900,5755884.920,80.400,127,155,95
401861.850,5755884.860,80.410,117,149,87
401862.090,5755885.240,80.290,114,152,89
401862.060,5755885.210,80.360,113,150,89
401862.000,5755885.150,80.380,118,152,91
401861.960,5755885.090,80.400,123,155,98
401861.900,5755885.030,80.390,121,147,89
401861.840,5755884.970,80.390,107,135,77
401861.780,5755884.910,80.390,122,157,95
401862.070,5755885.340,80.390,89,129,72
401862.000,5755885.270,80.370,103,141,85
401861.950,5755885.210,80.380,121,158,101
401861.890,5755885.150,80.390,127,155,101
401861.820,5755885.070,80.370,110,141,82
401861.760,5755885.000,80.340,126,161,99
401862.010,5755885.390,80.400,93,130,77
401861.950,5755885.330,80.400,106,140,86
401861.890,5755885.260,80.400,106,140,81
401861.830,5755885.200,80.400,105,138,83
401861.780,5755885.140,80.400,113,151,92
401861.710,5755885.070,80.390,130,170,105
401861.990,5755885.490,80.360,105,138,83
401861.940,5755885.430,80.370,124,158,103
401861.880,5755885.380,80.390,134,164,105
401861.830,5755885.310,80.380,117,147,84
401861.770,5755885.250,80.390,92,127,66
401861.730,5755885.210,80.440,91,132,72
401861.980,5755885.610,80.350,85,112,67
401861.930,5755885.550,80.360,102,135,81
401861.870,5755885.490,80.370,125,160,98
401861.820,5755885.430,80.380,133,164,99
401861.770,5755885.380,80.400,132,163,96
401861.710,5755885.320,80.400,120,155,87
401861.660,5755885.260,80.420,118,155,94
401861.920,5755885.660,80.350,102,136,83
401861.860,5755885.600,80.350,122,154,93
401861.810,5755885.550,80.370,128,159,93
401861.760,5755885.490,80.380,115,141,76
401861.710,5755885.440,80.400,79,108,53
401861.660,5755885.380,80.410,109,143,84
401861.910,5755885.770,80.330,116,154,102
401861.850,5755885.710,80.330,116,155,96
401861.800,5755885.660,80.340,121,154,90
401861.750,5755885.600,80.360,113,141,75
401861.690,5755885.540,80.370,93,120,55
401861.650,5755885.500,80.400,75,107,51
401861.600,5755885.440,80.420,119,151,89
401861.840,5755885.840,80.350,131,166,112
401861.800,5755885.790,80.370,129,166,106
401861.750,5755885.730,80.390,129,165,100
401861.700,5755885.670,80.390,120,151,84
401861.630,5755885.600,80.370,118,149,80
401861.580,5755885.550,80.390,131,163,93
401861.540,5755885.500,80.410,135,164,92
401861.780,5755885.900,80.350,129,164,104
401861.750,5755885.850,80.390,121,154,92
401861.690,5755885.790,80.390,113,147,84
401861.640,5755885.730,80.390,112,142,76
401861.600,5755885.690,80.450,125,152,84
401861.560,5755885.650,80.500,136,163,98
401861.530,5755885.600,80.550,125,153,89
401861.800,5755886.040,80.420,128,160,101
401861.700,5755885.920,80.420,111,143,81
401861.540,5755885.740,80.590,143,169,101
401861.760,5755886.110,80.460,124,150,91
401861.640,5755885.980,80.420,118,151,92
401861.610,5755885.940,80.490,127,153,88
401861.710,5755886.180,80.490,87,115,62
401861.620,5755886.090,80.410,96,127,72
401861.580,5755886.040,80.430,109,140,84
401861.550,5755886.000,80.490,116,144,84
401861.530,5755885.980,80.600,124,150,85
401861.620,5755886.210,80.420,93,120,71
401861.560,5755886.150,80.410,106,136,84
401861.520,5755886.100,80.440,107,136,82
401861.490,5755886.060,80.490,103,130,78
401861.470,5755886.030,80.610,103,133,74
401861.650,5755886.370,80.520,133,155,94
401861.570,5755886.280,80.440,116,140,84
401861.510,5755886.220,80.440,104,134,78
401861.480,5755886.170,80.480,95,121,61
401861.440,5755886.120,80.520,74,102,49
401861.420,5755886.100,80.630,78,112,56
401861.620,5755886.460,80.440,112,145,81
401861.570,5755886.400,80.460,121,153,89
401861.520,5755886.350,80.490,119,146,87
401861.460,5755886.280,80.470,116,149,86
401861.420,5755886.230,80.490,117,146,80
401861.380,5755886.190,80.540,83,113,55
401861.360,5755886.160,80.620,75,111,53
401861.480,5755886.420,80.530,119,150,91
401861.400,5755886.340,80.470,106,139,80
401861.370,5755886.300,80.520,124,162,98
401861.340,5755886.260,80.580,118,149,87
401861.420,5755886.490,80.540,111,141,84
401861.360,5755886.410,80.520,100,133,78
401861.320,5755886.370,80.560,132,171,109
401861.290,5755886.330,80.610,128,161,97
401861.510,5755886.690,80.480,107,137,81
401861.320,5755886.480,80.570,104,139,86
401861.270,5755886.420,80.580,127,164,103
401861.230,5755886.370,80.610,114,145,84
401861.180,5755886.330,80.650,75,105,55
401861.470,5755886.780,80.390,109,142,85
401861.440,5755886.750,80.470,111,141,83
401861.200,5755886.480,80.580,101,134,79
401861.170,5755886.440,80.630,87,118,63
401861.420,5755886.850,80.420,129,160,99
401861.380,5755886.800,80.460,118,146,85
401861.180,5755886.590,80.550,110,144,91
401861.130,5755886.530,80.550,97,132,79
401861.100,5755886.480,80.590,89,121,69
401861.390,5755886.950,80.330,121,154,97
401861.350,5755886.900,80.400,121,151,94
401861.320,5755886.860,80.470,116,146,86
401861.140,5755886.660,80.580,108,142,91
401861.080,5755886.590,80.570,109,144,92
401861.370,5755887.050,80.300,108,139,80
401861.320,5755887.000,80.310,107,136,82
401861.280,5755886.950,80.360,118,149,93
401861.240,5755886.910,80.430,123,153,92
401861.180,5755886.830,80.550,96,124,79
401861.090,5755886.720,80.600,103,137,84
