//X,Y,Z,R,G,B
401916.280,5755817.010,77.590,160,142,102
401916.330,5755816.940,77.570,160,142,102
401916.020,5755817.330,77.530,157,142,99
401916.060,5755817.220,77.570,158,142,99
401916.110,5755817.130,77.570,159,140,99
401916.160,5755817.020,77.610,159,141,100
401916.200,5755816.920,77.620,160,142,102
401916.250,5755816.860,77.590,159,141,103
401915.890,5755817.260,77.680,157,142,101
401915.940,5755817.260,77.530,157,142,100
401915.980,5755817.170,77.530,157,142,100
401916.030,5755817.070,77.550,154,139,98
401916.080,5755816.960,77.590,156,140,98
401915.760,5755817.310,77.620,158,142,101
401915.810,5755817.260,77.570,157,142,101
401915.860,5755817.190,77.520,156,142,100
401915.900,5755817.100,77.540,157,143,101
401915.950,5755816.990,77.570,160,145,102
401916.000,5755816.900,77.580,157,141,100
401915.680,5755817.280,77.560,160,143,100
401915.730,5755817.220,77.520,158,142,99
401915.780,5755817.120,77.530,156,141,98
401915.820,5755817.020,77.560,157,143,99
401915.870,5755816.920,77.570,162,145,102
401915.600,5755817.230,77.530,160,143,100
401915.650,5755817.150,77.510,158,143,99
401915.700,5755817.060,77.530,157,142,99
401915.740,5755816.950,77.560,158,142,99
401915.790,5755816.860,77.560,159,142,101
401915.520,5755817.180,77.500,159,142,99
401915.570,5755817.090,77.500,159,142,100
401915.620,5755817.000,77.510,159,142,100
401915.670,5755816.910,77.520,159,143,99
401915.400,5755817.200,77.490,158,141,99
401915.450,5755817.120,77.490,160,142,99
401915.490,5755817.030,77.490,161,144,100
401915.540,5755816.860,77.640,162,145,101
401915.230,5755817.290,77.520,163,145,101
401915.270,5755817.210,77.520,163,145,100
401915.320,5755817.100,77.560,161,143,100
401915.370,5755817.020,77.550,163,144,101
401915.410,5755816.940,77.530,165,146,102
401915.460,5755816.860,77.530,166,147,102
401915.050,5755817.350,77.600,157,142,98
401915.100,5755817.270,77.600,161,143,100
401915.150,5755817.210,77.540,163,145,101
401915.190,5755817.130,77.530,164,146,101
401915.240,5755817.020,77.570,165,147,102
401915.290,5755816.950,77.540,164,146,102
401915.340,5755816.870,77.530,164,146,102
401914.930,5755817.370,77.600,151,137,97
401914.980,5755817.290,77.590,152,138,97
401915.020,5755817.190,77.610,156,140,97
401915.070,5755817.100,77.620,161,144,98
401915.120,5755817.000,77.640,162,144,99
401915.160,5755816.940,77.590,163,145,100
401914.850,5755817.300,77.600,148,135,97
401914.900,5755817.220,77.600,152,138,98
401914.950,5755817.110,77.640,158,141,99
401914.990,5755817.020,77.640,159,142,98
401915.040,5755816.920,77.660,159,141,97
401914.730,5755817.370,77.530,148,137,99
401914.770,5755817.250,77.570,149,136,98
401914.820,5755817.150,77.610,154,138,97
401914.870,5755817.040,77.630,157,140,98
401914.920,5755816.940,77.670,155,140,97
401914.600,5755817.360,77.560,145,134,98
401914.650,5755817.290,77.540,147,135,97
401914.700,5755817.170,77.590,151,137,98
401914.750,5755817.080,77.610,152,137,96
401914.790,5755816.970,77.640,151,137,96
401914.480,5755817.310,77.680,141,131,97
401914.530,5755817.300,77.550,144,134,98
401914.570,5755817.210,77.560,146,135,98
401914.620,5755817.120,77.570,148,136,97
401914.670,5755817.040,77.570,148,135,96
401914.720,5755816.890,77.660,148,134,95
401914.360,5755817.350,77.650,139,128,98
401914.410,5755817.270,77.630,140,130,97
401914.450,5755817.190,77.630,142,133,96
401914.500,5755817.110,77.620,143,133,96
401914.550,5755817.010,77.650,143,133,95
401914.590,5755816.920,77.650,144,133,95
401914.240,5755817.380,77.630,139,129,98
401914.280,5755817.300,77.620,138,129,97
401914.330,5755817.230,77.590,139,130,96
401914.380,5755817.130,77.610,140,131,96
401914.420,5755817.040,77.630,140,132,95
401914.470,5755816.950,77.630,141,132,95
401914.510,5755816.900,77.570,142,131,95
401914.110,5755817.390,77.640,139,130,99
401914.160,5755817.330,77.600,138,129,98
401914.210,5755817.210,77.660,137,128,97
401914.260,5755817.110,77.670,138,130,97
401914.300,5755817.040,77.660,138,130,97
401914.350,5755816.970,77.640,138,130,95
401914.390,5755816.900,77.610,140,131,95
401913.990,5755817.400,77.660,135,128,98
401914.040,5755817.320,77.640,134,127,97
401914.090,5755817.240,77.640,134,127,98
401914.130,5755817.160,77.630,136,128,99
401914.180,5755817.080,77.610,135,128,97
401914.220,5755816.990,77.620,135,127,97
401914.270,5755816.920,77.610,136,128,96
401913.920,5755817.340,77.650,132,126,97
401913.960,5755817.250,77.660,130,125,96
401914.010,5755817.170,77.650,130,125,96
401914.050,5755817.100,77.630,131,127,98
401914.100,5755817.030,77.590,131,126,98
401914.150,5755816.940,77.600,130,125,96
401913.840,5755817.300,77.600,132,127,97
401913.880,5755817.230,77.580,129,124,96
401913.930,5755817.140,77.580,127,123,95
401913.980,5755817.070,77.560,127,123,97
401914.020,5755817.000,77.530,126,124,98
401914.070,5755816.910,77.540,126,122,96
401913.710,5755817.380,77.500,131,125,97
401913.760,5755817.240,77.590,131,125,96
401913.810,5755817.160,77.580,128,124,97
401913.850,5755817.080,77.580,124,122,97
401913.900,5755817.010,77.540,122,120,96
401913.940,5755816.940,77.510,121,121,96
401913.590,5755817.390,77.510,126,123,97
401913.630,5755817.330,77.460,128,124,96
401913.690,5755817.170,77.590,128,123,96
401913.730,5755817.090,77.580,127,123,96
401913.780,5755817.010,77.580,122,121,97
401913.820,5755816.950,77.530,120,120,96
401913.470,5755817.410,77.500,124,121,97
401913.510,5755817.340,77.480,126,123,97
401913.560,5755817.280,77.440,128,124,96
401913.610,5755817.100,77.610,128,124,97
401913.660,5755817.020,77.590,125,122,97
401913.700,5755816.940,77.580,120,120,96
401913.350,5755817.410,77.540,124,120,96
401913.400,5755817.310,77.570,127,123,97
401913.450,5755817.200,77.600,128,124,98
401913.480,5755817.220,77.420,129,125,98
401913.530,5755817.070,77.540,128,124,97
401913.580,5755816.980,77.550,124,122,96
401913.280,5755817.340,77.540,126,122,97
401913.320,5755817.240,77.560,127,123,96
401913.370,5755817.140,77.590,128,124,97
401913.400,5755817.190,77.370,128,124,97
401913.460,5755817.040,77.480,127,123,96
401913.120,5755817.390,77.630,133,127,96
401913.160,5755817.350,77.570,129,125,96
401913.200,5755817.270,77.550,128,124,96
401913.250,5755817.190,77.550,128,124,96
401913.280,5755817.200,77.380,127,123,96
401913.330,5755817.130,77.360,127,123,96
401913.380,5755816.960,77.510,126,123,95
401912.990,5755817.430,77.600,143,132,98
401913.040,5755817.330,77.630,142,133,98
401913.090,5755817.260,77.600,133,127,97
401913.130,5755817.210,77.540,130,125,96
401913.170,5755817.130,77.540,129,125,96
401913.220,5755817.040,77.540,127,123,95
401913.260,5755816.960,77.540,128,124,96
401912.920,5755817.370,77.590,147,135,98
401912.970,5755817.270,77.620,146,136,98
401913.010,5755817.200,77.600,134,128,95
401913.050,5755817.160,77.520,130,125,95
401913.100,5755817.080,77.510,128,124,95
401913.130,5755817.060,77.400,128,124,95
401912.800,5755817.400,77.570,148,136,96
401912.840,5755817.310,77.580,146,134,97
401912.890,5755817.220,77.600,145,133,96
401912.940,5755817.150,77.560,136,129,95
401912.980,5755817.070,77.560,131,126,95
401913.020,5755817.000,77.540,130,125,95
401913.060,5755817.000,77.390,131,126,96
401913.100,5755816.930,77.350,131,126,96
401912.680,5755817.420,77.570,152,138,95
401912.720,5755817.330,77.570,152,138,97
401912.770,5755817.230,77.610,145,135,97
401912.820,5755817.160,77.590,145,133,96
401912.860,5755817.070,77.590,142,133,96
401912.910,5755816.990,77.570,133,128,95
401912.980,5755816.940,77.370,133,128,97
401912.600,5755817.390,77.510,148,135,95
401912.640,5755817.320,77.490,150,137,96
401912.680,5755817.280,77.410,147,135,96
401912.740,5755817.090,77.590,149,136,96
401912.790,5755817.010,77.580,145,135,96
401912.830,5755816.940,77.550,136,129,95
401912.440,5755817.440,77.590,148,136,94
401912.490,5755817.380,77.560,142,132,93
401912.520,5755817.350,77.470,142,131,93
401912.570,5755817.280,77.430,145,133,94
401912.610,5755817.190,77.450,146,133,94
401912.670,5755817.040,77.560,149,135,96
401912.710,5755816.960,77.560,147,134,96
401912.370,5755817.390,77.580,149,136,93
401912.410,5755817.320,77.540,146,134,94
401912.450,5755817.280,77.480,143,132,93
401912.490,5755817.200,77.460,140,130,93
401912.540,5755817.130,77.440,140,130,92
401912.590,5755816.990,77.530,144,132,95
401912.250,5755817.390,77.600,154,140,92
401912.290,5755817.340,77.550,151,137,92
401912.340,5755817.280,77.510,151,138,94
401912.380,5755817.200,77.500,149,136,93
401912.430,5755817.110,77.510,147,135,94
401912.470,5755817.050,77.470,143,132,94
401912.170,5755817.380,77.500,152,138,91
401912.220,5755817.290,77.520,151,137,91
401912.270,5755817.170,77.570,153,139,94
401912.310,5755817.090,77.570,153,139,94
401912.360,5755817.010,77.570,152,138,94
401912.050,5755817.400,77.510,151,137,90
401912.100,5755817.310,77.520,152,139,92
401912.150,5755817.210,77.540,151,138,91
401912.190,5755817.120,77.550,153,139,94
401912.240,5755817.030,77.570,155,140,94
401911.940,5755817.390,77.540,150,135,91
401911.980,5755817.310,77.540,150,137,91
401912.030,5755817.240,77.520,151,139,91
401912.070,5755817.150,77.530,151,138,91
401912.120,5755817.070,77.530,154,140,92
401912.170,5755816.980,77.540,158,143,93
401911.820,5755817.440,77.500,143,129,89
401911.870,5755817.330,77.550,146,132,90
401911.910,5755817.250,77.530,151,136,91
401911.950,5755817.200,77.490,152,138,91
401912.000,5755817.090,77.520,155,140,91
401912.050,5755817.010,77.510,155,140,90
401911.700,5755817.450,77.520,126,115,84
401911.750,5755817.370,77.510,137,124,87
401911.790,5755817.300,77.490,143,128,89
401911.830,5755817.220,77.480,154,138,93
401911.880,5755817.160,77.440,157,140,91
401911.920,5755817.050,77.480,158,141,90
401911.970,5755816.970,77.470,155,141,90
401911.680,5755817.300,77.520,125,115,83
401911.720,5755817.220,77.500,137,123,88
401911.760,5755817.160,77.470,151,135,93
401911.800,5755817.110,77.410,156,139,91
401911.850,5755816.990,77.470,156,141,92
401911.690,5755817.100,77.460,137,124,88
401911.730,5755817.040,77.420,148,133,92
401909.770,5755817.160,78.780,157,183,109
401909.820,5755817.070,78.800,174,199,122
401909.700,5755817.110,78.760,169,188,120
401917.430,5755816.840,77.820,221,238,161
401917.360,5755816.920,77.800,180,186,129
401917.280,5755816.860,77.790,169,165,121
401917.270,5755817.000,77.790,163,154,116
401917.200,5755816.930,77.780,165,152,117
401917.130,5755816.870,77.750,168,154,119
401917.130,5755816.820,77.650,168,154,118
401917.210,5755817.070,77.750,166,153,118
401917.110,5755817.010,77.770,165,151,115
401917.070,5755816.950,77.710,166,151,115
401916.980,5755816.890,77.710,167,152,114
401916.910,5755816.830,77.700,169,154,113
401917.080,5755817.150,77.800,167,153,116
401916.990,5755817.080,77.800,167,152,113
401916.960,5755817.020,77.740,167,152,112
401916.890,5755816.960,77.710,168,153,113
401916.830,5755816.900,77.680,169,154,113
401916.760,5755816.840,77.660,169,154,113
401916.920,5755817.210,77.880,166,151,109
401916.900,5755817.160,77.800,167,152,109
401916.870,5755817.100,77.720,169,153,111
401916.820,5755817.040,77.690,169,153,112
401916.760,5755816.980,77.650,169,153,113
401916.680,5755816.920,77.640,167,152,112
401916.620,5755816.860,77.610,166,150,110
401916.920,5755817.300,77.770,167,150,107
401916.780,5755817.230,77.830,168,151,107
401916.790,5755817.180,77.710,169,151,110
401916.750,5755817.120,77.660,169,152,111
401916.700,5755817.060,77.620,167,151,111
401916.610,5755817.000,77.610,165,150,110
401916.550,5755816.940,77.580,166,151,110
401916.490,5755816.880,77.550,165,150,111
401916.790,5755817.310,77.710,166,149,106
401916.700,5755817.250,77.710,168,150,110
401916.660,5755817.190,77.660,167,150,111
401916.620,5755817.140,77.600,165,150,110
401916.520,5755817.070,77.610,165,150,110
401916.240,5755816.880,77.630,164,149,110
401916.580,5755817.270,77.640,165,147,109
401916.540,5755817.210,77.590,165,149,110
401916.460,5755817.290,77.570,165,148,109
401915.420,5755816.870,77.670,172,153,109
401915.310,5755816.940,77.690,170,152,108
401915.240,5755816.880,77.670,170,152,109
401915.240,5755817.020,77.670,169,151,108
401915.160,5755816.960,77.670,167,151,108
401915.080,5755816.890,77.650,163,149,107
401915.160,5755817.090,77.660,170,151,108
401915.070,5755817.030,77.660,167,150,107
401915.000,5755816.970,77.650,164,149,108
401914.940,5755816.910,77.610,160,146,107
401915.050,5755817.160,77.680,167,151,108
401914.980,5755817.100,77.670,165,150,107
401914.900,5755817.040,77.650,164,149,108
401914.860,5755816.990,77.600,160,146,106
401914.820,5755816.930,77.540,156,143,104
401914.960,5755817.240,77.690,163,148,107
401914.880,5755817.180,77.680,163,148,107
401914.820,5755817.120,77.640,162,147,107
401914.770,5755817.060,77.600,159,145,106
401914.740,5755817.000,77.530,154,142,103
401914.680,5755816.940,77.490,152,139,102
401914.610,5755816.890,77.460,150,138,102
401914.950,5755817.370,77.690,163,147,107
401914.880,5755817.310,77.680,159,144,106
401914.800,5755817.250,77.670,158,144,107
401914.740,5755817.190,77.640,159,144,106
401914.680,5755817.130,77.610,157,143,106
401914.640,5755817.080,77.550,154,141,105
401914.580,5755817.020,77.510,152,139,103
401914.520,5755816.960,77.470,150,138,103
401914.460,5755816.900,77.440,147,136,103
401914.720,5755817.330,77.660,153,139,105
401914.680,5755817.270,77.600,157,142,107
401914.610,5755817.210,77.570,157,143,107
401914.580,5755817.160,77.500,154,141,106
401914.480,5755817.090,77.520,150,139,104
401914.430,5755817.030,77.480,148,137,103
401914.380,5755816.970,77.430,146,136,104
401914.340,5755816.920,77.370,142,135,103
401914.640,5755817.350,77.530,154,140,105
401914.570,5755817.290,77.520,154,141,106
401914.520,5755817.230,77.460,151,139,104
401914.390,5755817.160,77.530,148,138,104
401914.330,5755817.110,77.490,146,137,104
401914.280,5755817.050,77.440,143,136,104
401914.230,5755816.990,77.390,139,134,103
401914.140,5755816.930,77.400,133,131,103
401914.460,5755817.360,77.550,150,139,104
401914.380,5755817.300,77.540,149,139,104
401914.310,5755817.240,77.520,147,138,104
401914.250,5755817.180,77.490,144,137,104
401914.160,5755817.120,77.490,140,135,104
401914.110,5755817.060,77.430,136,133,104
401914.010,5755817.000,77.460,130,129,103
401913.950,5755816.940,77.430,128,128,103
401914.290,5755817.370,77.540,149,138,106
401914.200,5755817.310,77.550,147,137,104
401914.130,5755817.250,77.520,143,137,105
401914.080,5755817.190,77.480,140,135,105
401914.030,5755817.140,77.430,135,132,103
401913.980,5755817.080,77.390,130,129,104
401913.860,5755817.010,77.430,129,128,104
401913.760,5755816.950,77.440,128,128,104
401914.130,5755817.390,77.520,146,135,104
401910.730,5755817.490,79.280,206,208,165
401909.970,5755817.080,78.970,180,205,124
401909.940,5755817.030,78.900,193,215,131
401909.940,5755817.160,78.900,170,193,112
401909.980,5755817.110,78.710,170,188,109
401909.850,5755817.050,78.800,189,206,131
401909.960,5755817.240,78.750,196,216,133
401909.850,5755817.180,78.800,188,204,128
401909.720,5755817.110,78.870,209,222,148
401909.840,5755817.300,78.820,211,229,146
401909.730,5755817.240,78.860,206,225,148
401909.700,5755817.360,78.910,209,230,150
401908.380,5755817.410,79.650,199,224,147
401908.280,5755817.430,79.570,171,194,118
401907.440,5755817.100,79.690,199,222,146
401907.470,5755817.230,79.650,197,219,144
401907.370,5755817.170,79.690,205,225,146
401907.290,5755817.110,79.680,216,231,156
401907.440,5755817.300,79.560,200,218,145
401907.340,5755817.240,79.610,202,219,140
401907.170,5755817.170,79.760,224,233,156
401907.110,5755817.120,79.730,229,234,163
401907.410,5755817.420,79.630,184,197,128
401907.380,5755817.370,79.540,193,209,139
401907.260,5755817.310,79.620,191,209,132
401907.090,5755817.240,79.780,201,214,134
401907.020,5755817.180,79.760,215,224,147
401906.950,5755817.130,79.760,213,221,155
401907.430,5755817.550,79.590,194,209,135
401907.300,5755817.480,79.690,194,207,138
401907.280,5755817.430,79.590,179,195,129
401907.210,5755817.380,79.580,168,189,117
401907.020,5755817.300,79.770,167,189,110
401906.940,5755817.250,79.780,181,201,115
401906.870,5755817.190,79.760,206,222,146
401906.800,5755817.140,79.760,214,226,159
401907.280,5755817.550,79.600,175,194,121
401907.200,5755817.500,79.600,167,187,116
401907.140,5755817.450,79.570,162,184,112
401906.970,5755817.370,79.740,159,185,106
401906.860,5755817.310,79.790,166,192,106
401906.810,5755817.260,79.740,193,217,137
401906.700,5755817.200,79.810,201,216,144
401906.620,5755817.140,79.810,204,216,146
401907.120,5755817.560,79.620,176,197,121
401906.450,5755817.190,79.980,202,215,146
401899.990,5755817.330,80.700,100,118,70
401899.970,5755817.400,80.610,130,156,101
401899.910,5755817.350,80.570,130,151,100
401899.820,5755817.410,80.660,153,181,119
401899.750,5755817.360,80.640,131,158,102
401899.800,5755817.480,80.550,129,153,96
401899.720,5755817.420,80.580,141,164,106
401899.620,5755817.370,80.640,155,182,115
401899.730,5755817.540,80.580,110,137,81
401899.660,5755817.490,80.560,140,165,106
401899.540,5755817.420,80.700,166,192,125
401899.490,5755817.370,80.660,169,198,121
401899.660,5755817.590,80.620,109,134,78
401899.570,5755817.540,80.650,128,150,94
401899.490,5755817.480,80.700,148,173,108
401899.410,5755817.430,80.720,168,198,120
401899.660,5755817.700,80.630,134,162,95
401899.590,5755817.650,80.620,115,141,85
401899.510,5755817.600,80.660,122,145,91
401899.400,5755817.530,80.770,152,178,113
401899.540,5755817.710,80.610,104,131,75
401899.460,5755817.660,80.620,128,153,89
401902.060,5755817.420,80.630,177,195,127
401906.130,5755817.180,80.060,177,204,124
401906.450,5755817.130,79.970,176,195,128
401906.490,5755817.440,80.030,149,173,102
401906.710,5755817.290,79.880,193,211,149
401907.060,5755817.280,79.820,195,214,142
401907.070,5755817.540,79.850,195,213,148
401907.300,5755817.150,79.690,207,221,143
401907.330,5755817.440,79.730,189,208,125
401907.630,5755817.120,79.610,208,227,128
401907.620,5755817.370,79.640,217,235,134
401907.940,5755817.330,79.550,205,232,115
401908.160,5755817.190,79.420,191,219,123
401908.270,5755817.560,79.510,187,216,106
401908.460,5755817.130,79.320,182,210,111
401908.470,5755817.400,79.360,168,195,101
401908.780,5755817.090,79.240,196,220,120
401908.740,5755817.310,79.250,191,220,102
401909.040,5755817.260,79.160,204,232,112
401909.280,5755817.140,79.040,187,216,106
401909.260,5755817.370,79.060,193,226,96
401909.710,5755817.480,79.050,187,218,101
401910.430,5755817.100,79.110,182,213,83
401910.310,5755817.230,79.080,189,223,82
401910.180,5755817.350,79.030,178,210,82
401909.950,5755817.370,78.930,192,223,88
401920.010,5755817.110,78.610,200,227,118
401920.090,5755817.020,78.600,192,217,119
401919.860,5755817.190,78.530,194,220,115
401919.890,5755817.020,78.580,197,224,122
401919.980,5755816.930,78.560,190,216,122
401920.110,5755816.910,78.480,187,209,120
401920.200,5755816.830,78.450,211,219,147
401920.280,5755816.720,78.450,227,217,172
401919.680,5755817.220,78.490,200,222,127
401919.750,5755817.110,78.480,201,225,119
401919.820,5755817.000,78.490,194,221,115
401919.890,5755816.890,78.490,196,223,122
401920.000,5755816.830,78.440,197,220,123
401920.090,5755816.750,78.400,206,213,140
401919.460,5755817.200,78.500,195,216,128
401919.530,5755817.090,78.500,207,228,136
401919.620,5755817.000,78.480,203,229,124
401919.680,5755816.880,78.480,190,217,110
401919.790,5755816.820,78.440,197,223,122
401919.260,5755817.210,78.480,201,222,137
401919.340,5755817.110,78.470,198,218,135
401919.410,5755817.000,78.470,200,220,130
401919.490,5755816.910,78.450,200,221,120
401919.560,5755816.790,78.450,197,218,119
401919.290,5755817.130,78.330,208,227,141
401919.330,5755816.970,78.380,212,228,143
401919.390,5755816.850,78.390,216,232,143
401919.000,5755817.210,78.350,208,230,137
401918.960,5755816.940,78.510,215,235,144
401919.070,5755816.890,78.450,220,238,154
401919.180,5755816.840,78.390,212,230,150
401919.270,5755816.750,78.380,210,223,146
401918.760,5755817.160,78.390,213,232,137
401918.810,5755817.020,78.430,214,235,138
401918.880,5755816.900,78.430,216,237,148
401918.970,5755816.830,78.400,222,239,160
401918.620,5755817.260,78.290,215,231,143
401918.690,5755817.130,78.300,215,234,140
401918.740,5755816.990,78.330,211,232,133
401918.810,5755816.890,78.320,202,224,130
401918.880,5755816.780,78.330,213,229,148
401918.570,5755817.260,78.170,216,231,149
401918.600,5755817.090,78.230,219,234,150
401918.660,5755816.970,78.240,207,226,134
401918.730,5755816.860,78.240,194,214,123
401918.810,5755816.760,78.230,213,228,146
401918.490,5755817.220,78.090,222,230,161
401918.520,5755817.060,78.140,225,232,165
401918.560,5755816.900,78.190,206,220,144
401918.630,5755816.790,78.190,205,220,141
401918.280,5755817.220,78.080,220,218,162
401918.330,5755817.070,78.120,216,212,160
401918.380,5755816.940,78.140,220,218,165
401918.440,5755816.810,78.160,209,216,154
401918.090,5755817.230,78.060,222,219,160
401918.160,5755817.130,78.050,219,212,161
401918.210,5755816.990,78.080,215,205,159
401918.270,5755816.860,78.100,215,206,160
401918.010,5755817.200,77.970,228,230,161
401918.060,5755817.070,78.000,218,215,155
401918.120,5755816.930,78.020,222,216,160
401918.170,5755816.800,78.050,228,219,165
401917.820,5755817.230,77.930,223,223,159
401917.890,5755817.120,77.940,224,223,160
401917.950,5755816.980,77.960,225,222,160
401918.010,5755816.860,77.970,232,229,163
401917.640,5755817.270,77.890,226,234,162
401917.710,5755817.150,77.900,223,227,158
401917.770,5755817.020,77.920,219,219,156
401917.830,5755816.890,77.940,224,222,160
401917.530,5755817.180,77.860,224,241,160
401917.600,5755817.080,77.850,227,242,161
401917.660,5755816.950,77.870,229,239,162
401917.720,5755816.820,77.880,233,239,165
401917.360,5755817.230,77.800,199,211,145
401917.400,5755817.080,77.850,198,211,141
401917.480,5755816.980,77.830,206,221,142
401917.540,5755816.860,77.850,220,238,155
401917.170,5755817.250,77.770,157,145,106
401917.240,5755817.130,77.780,160,153,110
401917.290,5755816.990,77.810,159,154,108
401917.360,5755816.880,77.810,172,174,114
401917.000,5755817.310,77.710,158,143,100
401917.070,5755817.190,77.720,160,145,107
401917.120,5755817.050,77.740,159,145,106
401917.160,5755816.890,77.800,159,146,106
401916.800,5755817.290,77.710,158,142,90
401916.860,5755817.180,77.720,160,144,98
401916.930,5755817.060,77.730,162,147,107
401916.970,5755816.910,77.770,161,146,105
401916.700,5755817.240,77.650,158,141,88
401916.760,5755817.110,77.670,161,144,93
401916.790,5755816.930,77.740,163,147,103
401913.900,5755817.250,77.750,134,129,109
401913.650,5755817.380,77.720,130,128,109
401913.710,5755817.250,77.740,131,129,109
401913.780,5755817.140,77.740,130,128,108
401913.470,5755817.400,77.690,126,125,110
401913.540,5755817.300,77.690,127,125,109
401913.640,5755817.240,77.630,128,127,109
401913.670,5755817.070,77.700,128,127,109
401913.750,5755816.980,77.680,125,124,107
401913.850,5755816.930,77.630,122,123,107
401913.360,5755817.320,77.660,124,123,108
401913.420,5755817.200,77.670,126,125,108
401913.510,5755817.120,77.640,128,127,109
401913.570,5755817.000,77.650,127,126,108
401913.260,5755817.250,77.610,126,126,109
401913.340,5755817.160,77.600,128,127,110
401913.440,5755817.120,77.530,128,127,109
401913.490,5755816.970,77.570,127,126,108
401913.290,5755816.950,77.580,128,127,108
401910.630,5755817.400,79.480,147,163,117
401910.690,5755817.280,79.490,166,183,139
401910.560,5755817.390,79.380,164,182,126
401910.620,5755817.280,79.390,177,200,142
401910.690,5755817.190,79.370,165,189,136
401910.500,5755817.400,79.260,178,202,131
401910.570,5755817.310,79.260,170,198,127
401910.620,5755817.180,79.280,174,201,138
401910.430,5755817.400,79.160,183,209,130
401910.500,5755817.300,79.160,164,193,115
401910.560,5755817.200,79.150,170,198,124
401910.700,5755817.250,79.010,160,185,122
401910.360,5755817.400,79.050,189,214,127
401910.430,5755817.310,79.040,173,202,120
401910.490,5755817.200,79.050,171,199,120
401910.610,5755817.210,78.940,175,201,129
401910.230,5755817.500,78.950,183,211,118
401910.300,5755817.420,78.930,182,208,113
401910.400,5755817.400,78.850,178,206,119
401910.500,5755817.350,78.790,172,201,121
401910.560,5755817.240,78.800,180,207,127
401910.590,5755817.070,78.870,182,207,126
401910.060,5755817.510,78.930,180,209,117
401910.130,5755817.430,78.900,187,217,121
401910.200,5755817.340,78.890,176,204,109
401910.280,5755817.260,78.870,178,205,115
401910.310,5755817.080,78.950,175,202,119
401909.860,5755817.460,78.960,184,208,124
401909.940,5755817.400,78.930,183,210,121
401910.060,5755817.420,78.810,187,213,121
401910.110,5755817.280,78.840,165,191,99
401910.150,5755817.140,78.890,176,200,110
401910.220,5755817.030,78.890,180,206,121
401909.110,5755817.090,79.190,178,200,121
401907.000,5755817.580,79.700,133,157,85
401907.070,5755817.500,79.680,157,180,106
401907.140,5755817.430,79.650,154,174,102
401906.890,5755817.440,79.720,151,175,98
401906.970,5755817.400,79.660,165,186,112
401907.040,5755817.340,79.630,167,183,115
401928.650,5755816.730,79.670,174,199,130
401928.590,5755816.600,79.610,166,186,124
401928.460,5755816.550,79.630,169,191,129
401928.310,5755816.550,79.700,162,186,118
401928.190,5755816.480,79.710,164,187,118
401928.640,5755816.960,79.680,184,210,139
401928.540,5755816.880,79.680,175,200,130
401928.440,5755816.800,79.660,181,202,136
401928.340,5755816.720,79.650,183,206,141
401928.250,5755816.630,79.640,168,193,124
401928.090,5755816.620,79.710,169,192,120
401928.200,5755816.910,79.700,174,199,130
401928.120,5755816.810,79.680,171,199,130
401928.000,5755816.750,79.690,171,195,126
401927.890,5755816.690,79.700,163,188,119
401927.810,5755816.580,79.660,133,158,101
401927.670,5755816.550,79.710,119,145,95
401928.000,5755816.970,79.690,176,201,132
401927.910,5755816.880,79.670,172,198,129
401927.820,5755816.780,79.640,153,180,113
401927.730,5755816.690,79.630,115,141,88
401927.580,5755816.670,79.680,120,146,95
401927.470,5755816.610,79.690,119,145,95
401927.340,5755816.560,79.720,104,130,80
401927.180,5755816.570,79.800,106,133,82
401927.730,5755816.910,79.620,147,174,104
401927.600,5755816.870,79.660,126,151,94
401927.470,5755816.830,79.700,129,156,100
401927.340,5755816.790,79.730,102,129,78
401927.210,5755816.750,79.760,116,142,90
401927.070,5755816.730,79.820,125,148,94
401926.930,5755816.690,79.860,134,160,101
401926.810,5755816.640,79.880,158,184,121
401927.340,5755817.000,79.730,123,146,89
401927.220,5755816.960,79.750,106,129,76
401927.110,5755816.890,79.770,111,133,80
401926.990,5755816.840,79.790,141,162,102
401926.850,5755816.810,79.830,154,176,114
401926.710,5755816.790,79.890,168,191,126
401926.720,5755816.560,79.720,173,196,128
401926.560,5755816.990,79.950,170,194,133
401926.550,5755816.800,79.810,178,199,135
401926.460,5755816.700,79.790,166,190,124
401926.470,5755816.910,79.780,165,190,131
401926.380,5755816.820,79.760,161,188,124
401926.330,5755816.680,79.690,157,184,120
401926.390,5755817.030,79.760,159,186,127
401926.300,5755816.930,79.730,157,184,122
401926.370,5755816.630,79.480,128,153,97
401926.240,5755816.580,79.510,133,161,103
401926.200,5755816.860,79.570,107,130,79
401926.110,5755816.760,79.540,110,136,81
401926.010,5755816.680,79.540,155,185,117
401925.920,5755816.600,79.520,145,178,103
401925.780,5755816.570,79.570,146,178,104
401925.980,5755816.960,79.600,107,132,77
401925.880,5755816.870,79.580,136,168,102
401925.770,5755816.810,79.590,132,164,92
401925.690,5755816.700,79.560,147,176,107
401925.620,5755816.580,79.500,154,180,112
401925.800,5755816.980,79.550,134,159,99
401925.720,5755816.880,79.520,129,155,91
401925.650,5755816.770,79.470,154,182,109
401925.550,5755816.690,79.460,168,197,119
401925.440,5755816.620,79.470,157,186,115
401925.530,5755816.940,79.500,170,195,112
401925.430,5755816.850,79.480,170,198,106
401925.370,5755816.720,79.420,142,172,93
401925.260,5755816.650,79.420,130,161,94
401925.130,5755816.610,79.460,111,144,86
401925.340,5755816.990,79.480,179,203,119
401925.270,5755816.870,79.420,147,173,84
401925.170,5755816.780,79.410,121,148,74
401925.060,5755816.720,79.420,90,118,63
401924.950,5755816.660,79.430,109,136,82
401924.850,5755816.580,79.430,134,163,100
401925.180,5755816.990,79.400,180,201,117
401925.120,5755816.860,79.330,155,177,101
401925.010,5755816.790,79.340,113,138,76
401924.910,5755816.710,79.330,114,140,79
401924.820,5755816.620,79.320,149,177,109
401924.530,5755816.590,79.430,176,206,140
401925.010,5755817.010,79.350,179,199,128
401924.920,5755816.920,79.320,137,162,93
401924.780,5755816.900,79.380,122,147,83
401924.790,5755816.660,79.200,139,168,97
401924.680,5755816.600,79.210,161,191,123
401924.870,5755816.990,79.250,154,181,102
401924.740,5755816.960,79.290,131,158,86
401924.620,5755816.910,79.310,147,176,101
401924.460,5755816.920,79.400,165,193,122
401924.420,5755816.760,79.310,176,206,139
401924.340,5755816.640,79.250,164,194,121
401924.530,5755817.050,79.310,127,155,90
401924.360,5755817.070,79.410,155,183,119
401924.270,5755816.980,79.390,170,199,136
401924.240,5755816.790,79.260,161,189,118
401924.150,5755816.700,79.250,136,166,93
401924.190,5755817.090,79.360,144,170,105
401924.050,5755817.070,79.410,173,201,128
401924.010,5755816.910,79.310,157,185,116
401923.880,5755817.100,79.370,170,201,138
401919.010,5755816.830,78.230,215,230,147
401918.910,5755816.990,78.250,218,234,145
401918.840,5755816.860,78.180,215,231,145
401918.690,5755816.850,78.100,215,232,144
401918.520,5755816.870,78.030,206,214,146
401918.430,5755816.780,78.010,217,217,160
401918.360,5755816.870,77.950,229,222,176
401918.200,5755816.880,77.890,234,227,174
401918.010,5755816.950,77.890,242,239,176
401917.940,5755816.800,77.810,243,242,178
401917.920,5755817.100,77.900,229,226,165
401917.840,5755816.980,77.840,235,232,172
401917.740,5755816.890,77.820,244,245,188
401917.630,5755816.830,77.840,247,251,198
401917.840,5755817.230,77.890,229,227,165
401917.760,5755817.110,77.830,234,233,174
401917.650,5755817.040,77.840,248,252,199
401917.540,5755816.980,77.850,246,252,204
401917.440,5755816.900,77.840,231,238,192
401917.340,5755816.830,77.840,202,202,162
401917.660,5755817.270,77.860,243,245,187
401917.560,5755817.200,77.850,248,254,203
401917.450,5755817.130,77.860,243,248,202
401917.350,5755817.050,77.850,202,202,158
401917.250,5755816.970,77.850,178,166,133
401917.160,5755816.880,77.820,181,166,133
401917.050,5755816.830,77.840,182,167,132
401917.370,5755817.260,77.850,247,252,205
401917.270,5755817.180,77.840,213,210,165
401917.160,5755817.120,77.850,181,166,133
401917.060,5755817.050,77.850,181,164,132
401916.960,5755816.970,77.850,184,167,131
401916.870,5755816.870,77.810,185,167,129
401917.080,5755817.250,77.840,181,165,131
401916.980,5755817.170,77.830,183,164,131
401916.910,5755817.030,77.750,185,166,130
401916.810,5755816.950,77.750,186,168,129
401916.710,5755816.880,77.740,185,166,128
401916.910,5755817.270,77.790,182,164,129
401916.820,5755817.170,77.750,183,165,128
401916.730,5755817.080,77.730,185,167,129
401916.640,5755816.980,77.700,182,164,127
401916.530,5755816.930,77.720,181,163,125
401916.410,5755816.890,77.750,182,164,126
401916.760,5755817.270,77.710,180,164,126
401916.660,5755817.180,77.690,183,166,128
401916.560,5755817.110,77.690,181,164,126
401916.440,5755817.070,77.720,182,164,125
401916.330,5755817.020,77.750,183,165,126
401916.230,5755816.930,77.730,181,163,126
401916.130,5755816.850,77.720,179,162,126
401916.580,5755817.310,77.680,177,161,126
401916.480,5755817.230,77.660,177,161,124
401916.360,5755817.190,77.710,180,162,124
401916.260,5755817.120,77.700,182,164,126
401916.170,5755817.030,77.680,178,162,126
401916.060,5755816.970,77.690,177,161,125
401915.960,5755816.900,77.690,183,166,128
401916.290,5755817.320,77.690,179,162,127
401916.180,5755817.250,77.690,180,163,127
401916.090,5755817.160,77.670,177,161,127
401915.980,5755817.090,77.670,172,157,123
401915.880,5755817.020,77.670,177,161,126
401915.790,5755816.910,77.630,181,164,127
401916.010,5755817.290,77.660,178,162,127
401915.910,5755817.210,77.650,178,162,126
401915.800,5755817.140,77.650,177,161,126
401915.710,5755817.040,77.620,179,162,125
401915.610,5755816.980,77.620,182,164,126
401915.520,5755816.880,77.590,186,168,128
401915.530,5755817.110,77.620,182,165,126
401915.430,5755817.030,77.610,183,167,127
401915.330,5755816.940,77.590,186,169,127
401915.340,5755817.180,77.620,180,164,125
401915.250,5755817.090,77.600,185,168,126
401915.160,5755817.230,77.600,186,168,127
401915.070,5755817.150,77.590,184,167,125
401914.980,5755817.290,77.600,178,163,125
401914.880,5755817.230,77.600,174,161,124
401914.800,5755817.350,77.580,168,156,123
401914.710,5755817.260,77.560,174,161,126
401914.630,5755817.380,77.540,170,158,126
401914.520,5755817.330,77.570,171,159,125
401914.340,5755817.390,77.560,166,155,125
401914.080,5755817.050,77.410,157,152,126
401913.990,5755816.930,77.350,150,147,125
401913.870,5755816.930,77.430,146,146,125
401913.740,5755816.940,77.520,146,146,125
401914.100,5755817.260,77.410,162,155,126
401913.980,5755817.250,77.480,157,151,127
401913.860,5755817.220,77.530,154,149,126
401913.760,5755817.160,77.540,151,148,125
401913.650,5755817.090,77.540,150,148,125
401913.560,5755817.000,77.520,149,148,124
401913.450,5755816.960,77.550,151,149,125
401913.900,5755817.380,77.470,158,152,125
401913.680,5755817.300,77.550,155,150,125
401913.580,5755817.230,77.550,153,150,126
401913.470,5755817.160,77.550,152,150,126
401913.370,5755817.090,77.550,152,150,125
401913.270,5755817.010,77.530,153,150,124
401913.170,5755816.940,77.530,156,152,125
401913.500,5755817.370,77.540,151,148,125
401913.390,5755817.310,77.560,151,149,126
401913.290,5755817.250,77.570,152,150,125
401913.200,5755817.130,77.510,153,150,124
401913.100,5755817.070,77.520,155,151,124
401913.000,5755816.970,77.490,157,152,124
401910.720,5755817.110,79.120,168,196,114
401910.630,5755817.010,79.080,152,183,93
401910.510,5755817.040,79.190,163,197,83
401913.230,5755817.340,77.510,151,149,125
401913.120,5755817.270,77.520,156,152,124
401913.010,5755817.230,77.550,158,153,124
401912.920,5755817.140,77.530,161,154,124
401912.810,5755817.070,77.520,165,155,124
401912.710,5755817.000,77.520,166,156,124
401910.680,5755817.120,78.990,161,185,109
401910.560,5755817.130,79.070,160,192,93
401910.450,5755817.120,79.130,167,202,79
401910.360,5755817.040,79.110,157,191,64
401912.940,5755817.330,77.510,168,159,126
401912.840,5755817.270,77.520,169,159,124
401912.730,5755817.210,77.540,173,160,124
401912.650,5755817.080,77.460,172,160,124
401912.540,5755817.030,77.490,168,158,122
401912.430,5755817.010,77.550,172,160,123
401910.290,5755817.170,79.120,168,199,85
401910.200,5755817.050,79.050,168,201,87
401912.650,5755817.390,77.580,175,162,124
401912.540,5755817.330,77.590,171,159,124
401912.440,5755817.250,77.580,170,159,122
401912.340,5755817.180,77.580,176,164,124
401912.250,5755817.070,77.530,178,164,122
401912.150,5755817.010,77.540,181,166,122
401910.210,5755817.340,79.160,181,214,97
401910.130,5755817.200,79.080,180,215,85
401910.020,5755817.160,79.100,180,213,87
401912.490,5755817.380,77.490,172,159,121
401912.380,5755817.330,77.510,176,162,121
401912.270,5755817.310,77.580,178,165,121
401912.170,5755817.210,77.540,178,163,120
401912.090,5755817.090,77.480,179,164,121
401911.990,5755817.010,77.470,183,169,122
401910.140,5755817.450,79.130,172,204,85
401910.060,5755817.300,79.040,191,222,87
401909.980,5755817.190,79.000,186,216,80
401912.310,5755817.440,77.490,185,168,123
401912.200,5755817.430,77.560,183,168,120
401912.110,5755817.320,77.510,181,166,120
401912.010,5755817.220,77.480,182,167,121
401910.090,5755817.510,79.050,164,194,73
401910.010,5755817.360,78.960,179,209,77
401909.920,5755817.270,78.930,183,211,81
401909.830,5755817.160,78.880,186,211,113
401912.040,5755817.410,77.450,189,171,121
401910.050,5755817.510,78.910,169,199,74
401909.970,5755817.350,78.800,182,212,82
401909.880,5755817.240,78.750,191,214,101
401909.740,5755817.360,78.960,184,209,118
401909.640,5755817.310,78.980,195,222,133
401909.540,5755817.270,79.000,187,216,121
401910.000,5755817.510,78.760,172,202,85
401909.910,5755817.440,78.760,171,201,84
401909.810,5755817.380,78.760,179,203,106
401908.450,5755817.090,79.400,193,218,137
401908.370,5755817.330,79.520,185,212,122
401907.450,5755817.230,79.690,187,207,130
401907.360,5755817.160,79.690,193,212,135
401907.260,5755817.130,79.730,194,208,133
401907.160,5755817.110,79.770,180,196,119
401907.390,5755817.380,79.720,186,200,138
401907.290,5755817.320,79.720,184,195,135
401907.190,5755817.300,79.770,183,198,122
401907.100,5755817.240,79.780,168,190,113
401907.000,5755817.200,79.800,171,195,118
401906.900,5755817.170,79.840,183,206,126
401907.230,5755817.460,79.740,145,158,104
401907.130,5755817.460,79.800,148,169,94
401907.030,5755817.410,79.820,147,171,96
401906.930,5755817.370,79.850,160,187,111
401906.840,5755817.320,79.860,176,203,122
401906.750,5755817.240,79.850,187,210,130
401907.170,5755817.500,79.640,149,171,103
401907.080,5755817.430,79.630,147,170,95
401906.980,5755817.440,79.720,145,169,96
401906.880,5755817.410,79.750,154,180,106
401906.780,5755817.400,79.820,164,192,115
401906.680,5755817.370,79.850,177,203,122
401906.590,5755817.290,79.830,170,188,113
401906.490,5755817.290,79.900,164,179,114
401906.110,5755817.160,80.040,152,180,105
401907.110,5755817.590,79.590,178,193,130
401907.020,5755817.500,79.570,145,165,101
401906.910,5755817.580,79.730,142,170,104
401906.820,5755817.530,79.740,156,182,112
401906.730,5755817.440,79.710,167,193,119
401906.640,5755817.280,79.610,168,190,114
401906.520,5755817.470,79.890,166,186,114
401906.420,5755817.470,79.960,150,165,105
401906.340,5755817.350,79.900,126,146,90
401906.240,5755817.260,79.870,123,146,89
401906.150,5755817.270,79.950,124,149,82
401906.040,5755817.410,80.170,134,160,90
401905.940,5755817.410,80.240,142,167,104
401905.840,5755817.380,80.270,171,192,137
401905.750,5755817.360,80.320,188,206,152
401905.650,5755817.390,80.430,182,200,133
401905.560,5755817.370,80.470,155,179,103
401905.460,5755817.370,80.540,162,190,119
401905.370,5755817.330,80.560,179,207,134
401905.280,5755817.190,80.480,162,194,103
401906.960,5755817.580,79.510,153,169,110
401906.860,5755817.570,79.570,144,170,104
401906.660,5755817.600,79.750,156,176,113
401906.560,5755817.550,79.770,162,183,115
401906.360,5755817.620,79.980,159,181,114
401906.260,5755817.570,80.000,122,145,86
401906.170,5755817.580,80.080,112,138,79
401905.870,5755817.630,80.350,125,144,98
401905.780,5755817.570,80.340,163,175,131
401905.680,5755817.610,80.450,188,204,161
401905.580,5755817.600,80.510,192,202,148
401905.490,5755817.640,80.630,156,177,102
401905.390,5755817.620,80.670,152,183,105
401905.300,5755817.540,80.650,156,188,107
401905.220,5755817.310,80.470,148,180,90
401905.130,5755817.190,80.410,140,178,86
401905.250,5755817.610,80.590,152,191,92
401905.160,5755817.530,80.570,156,190,97
401905.070,5755817.360,80.460,161,197,103
401904.990,5755817.170,80.320,164,200,107
401905.100,5755817.630,80.550,147,184,89
401904.200,5755817.220,80.240,123,141,83
401904.140,5755817.460,80.360,151,165,111
401904.050,5755817.240,80.190,143,155,111
401904.080,5755817.590,80.370,144,157,107
401903.990,5755817.580,80.420,146,160,115
401902.630,5755817.680,80.660,121,142,98
401902.550,5755817.700,80.750,139,150,119
401902.460,5755817.630,80.740,158,164,133
401902.370,5755817.530,80.700,141,147,111
401902.290,5755817.720,80.970,132,147,105
401902.320,5755817.740,80.800,140,148,101
401902.230,5755817.730,80.850,145,161,108
401902.080,5755817.680,80.730,162,171,118
401900.580,5755817.670,81.170,201,201,158
401900.520,5755817.710,81.080,213,214,166
401900.440,5755817.650,81.090,200,204,148
401900.350,5755817.590,81.080,170,181,120
401900.470,5755817.790,81.040,199,208,138
401900.380,5755817.670,80.980,188,203,137
401900.290,5755817.630,81.000,167,184,118
401900.200,5755817.580,81.000,125,138,89
401900.110,5755817.470,80.950,97,115,76
401900.020,5755817.370,80.920,117,140,94
401900.150,5755817.630,80.940,128,144,93
401899.960,5755817.430,80.850,115,137,80
401899.870,5755817.330,80.810,120,145,95
401900.090,5755817.690,80.870,164,177,107
401900.000,5755817.650,80.890,141,160,94
401899.910,5755817.500,80.800,129,152,99
401899.820,5755817.440,80.790,105,128,87
401899.860,5755817.650,80.820,121,141,89
401899.760,5755817.530,80.760,87,111,65
401899.670,5755817.430,80.710,110,140,89
401899.580,5755817.350,80.690,142,176,113
401899.890,5755817.780,80.770,148,170,116
401899.800,5755817.710,80.760,124,148,86
401899.710,5755817.610,80.720,96,122,70
401899.610,5755817.500,80.660,107,135,85
401899.530,5755817.470,80.700,134,164,102
401899.440,5755817.410,80.700,145,176,106
401899.830,5755817.820,80.690,151,166,113
401899.750,5755817.780,80.710,104,122,72
401899.660,5755817.710,80.690,92,117,71
401899.560,5755817.560,80.590,92,120,70
401899.470,5755817.520,80.620,127,156,94
401899.600,5755817.790,80.650,82,104,57
401899.520,5755817.800,80.720,95,117,70
401928.640,5755816.560,79.690,163,180,123
401928.680,5755816.710,79.640,174,199,129
401928.560,5755816.670,79.670,166,187,121
401928.480,5755816.580,79.640,169,188,123
401928.400,5755816.490,79.620,165,186,120
401928.690,5755816.900,79.630,189,212,141
401928.590,5755816.830,79.630,176,198,124
401928.500,5755816.760,79.630,184,205,136
401928.400,5755816.690,79.620,189,209,143
401928.310,5755816.620,79.620,174,197,127
401928.220,5755816.540,79.600,165,187,117
401928.040,5755816.570,79.740,176,195,124
401927.950,5755816.500,79.730,177,192,129
401928.500,5755816.960,79.630,176,200,128
401928.410,5755816.880,79.620,181,205,135
401928.300,5755816.830,79.640,175,200,131
401928.250,5755816.700,79.560,178,205,132
401928.100,5755816.700,79.650,167,191,120
401927.980,5755816.650,79.680,176,197,127
401927.880,5755816.580,79.680,159,177,116
401927.770,5755816.540,79.720,137,157,106
401927.650,5755816.500,79.750,131,156,107
401928.120,5755816.870,79.630,177,204,132
401928.010,5755816.810,79.640,177,200,126
401927.940,5755816.720,79.600,174,195,125
401927.830,5755816.660,79.610,138,161,101
401927.710,5755816.620,79.660,117,142,93
401927.600,5755816.560,79.670,103,128,83
401927.480,5755816.530,79.720,116,141,93
401927.920,5755816.940,79.640,179,203,128
401927.890,5755816.790,79.530,167,190,118
401927.790,5755816.730,79.540,126,152,91
401927.660,5755816.690,79.580,110,136,82
401927.550,5755816.640,79.610,117,142,88
401927.420,5755816.610,79.660,115,142,91
401927.300,5755816.580,79.710,109,138,86
401927.170,5755816.560,79.770,112,140,81
401927.800,5755816.910,79.530,161,187,107
401927.720,5755816.820,79.500,133,157,88
401927.630,5755816.750,79.490,125,151,91
401927.490,5755816.730,79.560,117,145,90
401927.360,5755816.700,79.620,93,123,72
401927.230,5755816.670,79.670,128,155,99
401927.110,5755816.640,79.720,145,169,110
401926.980,5755816.610,79.770,135,160,98
401926.890,5755816.540,79.760,162,185,119
401927.650,5755816.920,79.460,156,179,102
401927.520,5755816.890,79.510,138,159,94
401927.420,5755816.830,79.520,106,129,74
401927.300,5755816.790,79.560,100,123,68
401927.180,5755816.750,79.600,114,137,80
401927.060,5755816.710,79.640,157,179,114
401926.930,5755816.680,79.700,140,162,93
401926.810,5755816.640,79.740,166,184,114
401927.290,5755817.000,79.590,144,163,100
401927.170,5755816.970,79.640,149,167,106
401927.050,5755816.930,79.690,135,155,95
401926.930,5755816.890,79.730,168,191,123
401926.810,5755816.850,79.770,166,187,118
401926.710,5755816.790,79.770,179,198,130
401926.670,5755816.640,79.650,179,200,134
401926.570,5755816.570,79.660,166,190,124
401926.710,5755816.990,79.780,156,183,125
401926.610,5755816.930,79.790,168,192,134
401926.560,5755816.800,79.710,173,196,136
401926.520,5755816.650,79.590,155,180,120
401926.440,5755816.560,79.570,165,189,123
401926.470,5755816.920,79.710,168,192,131
401926.460,5755816.740,79.540,153,178,116
401926.420,5755816.590,79.430,146,170,109
401926.280,5755816.590,79.520,132,158,96
401926.160,5755816.550,79.560,139,168,99
401925.860,5755816.560,79.770,164,197,116
401926.420,5755816.990,79.630,164,190,128
401926.400,5755816.830,79.500,162,186,122
401926.370,5755816.660,79.360,128,149,93
401926.250,5755816.620,79.400,109,134,77
401926.110,5755816.620,79.490,148,177,106
401925.980,5755816.600,79.560,156,188,112
401925.820,5755816.610,79.670,131,163,88
401926.320,5755816.940,79.480,164,189,125
401926.240,5755816.850,79.450,108,130,79
401926.180,5755816.730,79.370,90,113,61
401926.050,5755816.710,79.440,144,173,105
401925.920,5755816.680,79.490,142,173,100
401925.750,5755816.720,79.650,134,162,91
401926.100,5755817.040,79.550,103,125,71
401926.050,5755816.910,79.460,113,133,78
401925.940,5755816.860,79.490,140,168,101
401925.700,5755816.790,79.580,147,173,104
401925.640,5755816.670,79.500,171,195,124
401925.570,5755816.560,79.440,162,188,112
401925.970,5755817.030,79.450,131,146,88
401925.850,5755816.990,79.490,147,173,104
401925.710,5755816.980,79.580,128,155,89
401925.620,5755816.910,79.570,151,175,106
401925.570,5755816.760,79.460,183,206,125
401925.540,5755816.610,79.330,159,185,103
401925.590,5755816.950,79.450,164,185,105
401925.490,5755816.880,79.460,188,207,117
401925.470,5755816.700,79.290,150,175,84
401925.370,5755816.640,79.300,135,164,86
401925.270,5755816.580,79.320,111,142,78
401925.520,5755817.050,79.420,182,205,128
401925.410,5755817.000,79.440,185,206,126
401925.380,5755816.830,79.310,162,183,96
401925.290,5755816.760,79.300,137,162,78
401925.190,5755816.680,79.290,96,125,63
401925.090,5755816.630,79.310,81,110,57
401924.970,5755816.590,79.350,113,143,83
401925.290,5755816.960,79.310,189,207,128
401925.200,5755816.890,79.310,173,187,109
401925.110,5755816.800,79.280,125,147,81
401925.000,5755816.750,79.310,95,121,64
401924.880,5755816.730,79.370,114,140,77
401925.100,5755817.030,79.330,196,210,141
401925.030,5755816.910,79.270,165,186,114
401924.910,5755816.880,79.320,127,147,82
401924.810,5755816.830,79.340,125,145,83
401924.700,5755816.780,79.370,135,161,91
401924.590,5755816.730,79.400,147,173,102
401924.950,5755817.030,79.260,176,199,118
401924.850,5755816.970,79.270,158,178,100
401924.750,5755816.920,79.290,133,156,82
401924.640,5755816.860,79.300,146,173,94
401924.520,5755816.820,79.350,154,180,110
401924.490,5755816.670,79.220,171,198,132
401924.370,5755816.630,79.270,156,185,119
401924.700,5755816.980,79.200,134,157,82
401924.580,5755816.950,79.260,133,159,90
401924.450,5755816.930,79.330,161,188,123
401924.430,5755816.750,79.160,177,206,140
401924.320,5755816.700,79.190,169,197,127
401924.640,5755817.060,79.150,139,162,93
401924.510,5755817.040,79.220,126,151,95
401924.370,5755817.040,79.310,146,172,111
401924.250,5755817.020,79.380,166,195,133
401924.160,5755816.930,79.350,176,203,134
401924.210,5755817.080,79.290,145,169,102
401924.100,5755817.020,79.300,183,210,131
401921.230,5755817.070,78.870,175,205,115
401921.130,5755817.010,78.890,143,170,95
401921.190,5755817.130,78.780,179,205,116
401921.100,5755817.050,78.760,164,187,119
401919.290,5755816.750,78.290,213,226,143
401919.200,5755816.910,78.350,210,229,136
401919.120,5755816.810,78.300,220,234,151
401919.170,5755817.200,78.510,195,220,116
401919.090,5755817.100,78.460,209,230,130
401919.050,5755816.930,78.300,218,235,142
401918.960,5755816.830,78.260,220,232,147
401919.030,5755817.210,78.440,210,230,125
401918.970,5755817.060,78.320,219,236,132
401918.890,5755816.950,78.260,213,230,126
401918.810,5755816.850,78.200,208,226,129
401918.890,5755817.170,78.300,210,228,120
401918.810,5755817.070,78.260,210,229,119
401918.730,5755816.960,78.200,201,221,114
401918.650,5755816.860,78.150,205,222,125
401918.570,5755816.770,78.120,213,225,143
401918.750,5755817.170,78.230,217,235,126
401918.670,5755817.070,78.180,204,220,115
401918.590,5755816.950,78.100,192,205,120
401918.500,5755816.870,78.080,198,207,133
401918.410,5755816.780,78.050,217,215,157
401918.530,5755817.030,78.050,216,222,150
401918.440,5755816.950,78.020,222,222,165
401918.350,5755816.870,78.000,234,224,178
401918.260,5755816.780,77.970,237,226,179
401918.290,5755816.960,77.970,230,218,173
401918.200,5755816.880,77.940,233,223,172
401918.110,5755816.800,77.920,240,234,176
401918.130,5755816.990,77.920,233,226,168
