//X,Y,Z,R,G,B
401833.700,5755958.740,79.560,207,216,155
401833.790,5755958.780,79.570,204,214,152
401833.850,5755958.830,79.510,209,219,156
401833.960,5755958.870,79.570,212,223,159
401834.050,5755958.910,79.600,221,230,170
401834.130,5755958.950,79.610,223,232,174
401834.220,5755958.990,79.630,215,225,168
401834.320,5755959.030,79.660,202,212,152
401834.380,5755959.080,79.610,203,214,151
401834.470,5755959.120,79.620,198,209,145
401834.570,5755959.150,79.690,196,205,144
401833.090,5755958.300,79.580,193,203,143
401833.180,5755958.350,79.590,193,202,143
401833.270,5755958.390,79.600,201,207,150
401833.350,5755958.430,79.610,212,216,159
401833.440,5755958.470,79.620,216,224,163
401833.520,5755958.520,79.600,205,214,151
401833.600,5755958.560,79.600,205,214,149
401833.680,5755958.610,79.580,207,215,154
401833.750,5755958.660,79.530,213,222,161
401833.840,5755958.700,79.550,208,218,157
401833.920,5755958.740,79.560,209,219,157
401834.010,5755958.790,79.570,209,219,157
401834.100,5755958.820,79.600,223,231,172
401834.190,5755958.860,79.630,233,239,183
401834.280,5755958.900,79.640,229,236,180
401834.370,5755958.940,79.670,224,233,174
401834.420,5755959.000,79.560,218,228,166
401834.510,5755959.050,79.560,196,207,143
401834.580,5755959.100,79.520,198,209,146
401807.500,5755946.380,79.480,136,138,106
401807.440,5755946.480,79.480,113,119,94
401807.410,5755946.570,79.520,93,109,88
401807.380,5755946.670,79.550,81,102,81
401807.330,5755946.760,79.560,78,101,82
401807.650,5755946.440,79.500,167,170,130
401807.550,5755946.540,79.460,141,142,112
401807.520,5755946.630,79.490,109,118,95
401807.510,5755946.730,79.550,91,108,89
401807.470,5755946.820,79.580,87,106,89
401807.790,5755946.500,79.510,163,178,138
401807.720,5755946.590,79.510,140,151,120
401807.630,5755946.690,79.480,115,129,105
401807.560,5755946.780,79.460,99,116,97
401807.530,5755946.880,79.510,95,112,96
401807.930,5755946.560,79.530,150,174,135
401807.850,5755946.650,79.510,154,176,139
401807.780,5755946.750,79.500,157,177,141
401807.690,5755946.840,79.470,128,147,121
401807.640,5755946.940,79.490,109,131,112
401808.060,5755946.620,79.530,141,165,125
401808.010,5755946.710,79.540,166,189,143
401807.960,5755946.800,79.550,180,201,149
401807.870,5755946.900,79.530,150,170,126
401807.810,5755946.990,79.530,127,150,117
401808.160,5755946.770,79.570,153,172,123
401808.100,5755946.860,79.570,167,185,128
401808.010,5755946.950,79.540,156,176,121
401807.930,5755947.050,79.530,139,162,117
401808.340,5755946.820,79.630,189,204,146
401808.300,5755946.920,79.650,187,202,147
401808.200,5755947.010,79.620,173,190,138
401808.110,5755947.100,79.580,145,166,120
401808.480,5755946.880,79.640,218,236,164
401808.430,5755946.970,79.660,210,225,161
401808.350,5755947.070,79.640,177,194,141
401808.230,5755947.160,79.570,140,160,118
401808.680,5755946.940,79.730,221,240,162
401808.670,5755947.030,79.790,212,228,154
401808.660,5755947.120,79.850,159,178,121
401808.560,5755947.210,79.810,133,157,112
401808.820,5755946.990,79.750,224,241,167
401808.780,5755947.080,79.780,216,234,162
401808.750,5755947.180,79.810,164,183,128
401808.710,5755947.270,79.830,122,148,103
401808.890,5755947.050,79.680,211,226,161
401808.840,5755947.140,79.700,206,220,159
401808.770,5755947.230,79.680,153,169,121
401808.690,5755947.330,79.670,114,138,103
401808.950,5755947.100,79.610,217,225,165
401808.900,5755947.200,79.620,206,212,157
401808.840,5755947.290,79.620,146,155,112
401808.750,5755947.380,79.600,99,118,91
401809.000,5755947.160,79.530,225,234,171
401808.960,5755947.250,79.550,211,218,160
401808.930,5755947.350,79.590,154,162,117
401808.910,5755947.440,79.630,110,127,97
401809.140,5755947.220,79.540,219,233,161
401809.030,5755947.310,79.490,199,212,151
401809.030,5755947.400,79.550,164,178,131
401808.970,5755947.500,79.560,135,150,118
401809.360,5755947.270,79.650,224,238,162
401809.150,5755947.370,79.480,224,237,169
401809.100,5755947.460,79.500,200,214,153
401809.040,5755947.550,79.490,162,177,130
401809.460,5755947.330,79.630,212,230,161
401809.380,5755947.420,79.600,226,242,178
401809.340,5755947.510,79.630,222,237,173
401809.280,5755947.600,79.640,199,215,159
401809.560,5755947.380,79.600,216,231,169
401809.470,5755947.480,79.570,217,230,172
401809.400,5755947.570,79.560,220,236,175
401809.350,5755947.660,79.570,210,227,169
401809.660,5755947.440,79.570,235,244,186
401809.610,5755947.530,79.580,235,243,184
401809.510,5755947.620,79.540,231,243,178
401809.470,5755947.720,79.570,210,227,160
401809.830,5755947.490,79.630,235,243,189
401809.680,5755947.590,79.530,246,250,199
401809.620,5755947.680,79.530,240,247,189
401809.560,5755947.770,79.530,218,232,167
401809.930,5755947.550,79.600,244,249,205
401809.870,5755947.640,79.600,251,253,212
401809.640,5755947.740,79.400,247,250,203
401809.570,5755947.830,79.390,234,243,188
401809.950,5755947.610,79.480,244,250,200
401809.900,5755947.700,79.490,246,250,208
401809.840,5755947.790,79.500,246,250,209
401809.720,5755947.880,79.420,233,240,192
401810.090,5755947.660,79.500,200,210,150
401810.030,5755947.750,79.500,215,226,168
401809.980,5755947.840,79.520,226,234,183
401809.920,5755947.940,79.510,235,240,195
401810.220,5755947.710,79.520,209,216,158
401810.180,5755947.810,79.530,214,221,165
401810.120,5755947.900,79.540,215,219,170
401810.050,5755947.990,79.530,216,219,171
401810.330,5755947.770,79.490,224,233,178
401810.300,5755947.860,79.540,235,244,190
401810.260,5755947.950,79.560,240,245,198
401810.200,5755948.040,79.560,235,237,188
401810.490,5755947.820,79.540,236,246,187
401810.430,5755947.910,79.540,233,244,188
401810.310,5755948.010,79.470,236,247,197
401810.260,5755948.100,79.490,236,246,195
401810.590,5755947.880,79.520,239,249,186
401810.520,5755947.970,79.510,231,244,180
401810.410,5755948.060,79.460,231,244,183
401810.360,5755948.150,79.460,227,240,181
401810.750,5755947.930,79.570,226,240,168
401810.640,5755948.020,79.510,224,238,170
401810.490,5755948.120,79.400,225,239,170
401810.430,5755948.210,79.400,220,235,165
401810.860,5755947.980,79.560,220,235,167
401810.810,5755948.070,79.570,236,247,187
401810.760,5755948.160,79.590,223,235,170
401810.710,5755948.250,79.600,218,233,162
401810.960,5755948.040,79.530,201,217,159
401810.890,5755948.130,79.530,224,237,183
401810.850,5755948.220,79.550,228,239,182
401810.800,5755948.310,79.570,225,239,175
401811.060,5755948.090,79.510,180,196,139
401811.000,5755948.180,79.510,178,196,143
401810.950,5755948.270,79.530,170,188,136
401810.890,5755948.360,79.530,178,197,142
401811.170,5755948.150,79.500,229,240,182
401811.100,5755948.240,79.480,214,229,171
401811.050,5755948.330,79.500,198,215,159
401811.000,5755948.420,79.510,182,199,146
401811.230,5755948.200,79.420,241,250,193
401811.180,5755948.290,79.440,241,250,195
401811.130,5755948.380,79.450,232,243,185
401811.080,5755948.470,79.460,225,239,180
401811.340,5755948.260,79.410,231,242,188
401811.280,5755948.350,79.410,225,238,183
401811.220,5755948.440,79.420,232,245,188
401811.160,5755948.530,79.420,241,250,196
401811.520,5755948.220,79.420,217,222,170
401811.450,5755948.310,79.400,212,224,170
401811.390,5755948.400,79.400,220,235,181
401811.350,5755948.490,79.430,234,244,195
401811.300,5755948.580,79.440,244,251,204
401811.630,5755948.270,79.410,218,220,161
401811.560,5755948.360,79.390,215,221,163
401811.490,5755948.450,79.390,231,240,183
401811.450,5755948.540,79.410,239,247,194
401811.420,5755948.630,79.440,239,247,197
401811.680,5755948.420,79.400,221,226,165
401811.600,5755948.510,79.370,224,232,170
401811.550,5755948.600,79.390,230,241,180
401811.510,5755948.690,79.410,230,241,181
401811.820,5755948.470,79.420,225,233,175
401811.730,5755948.560,79.390,220,230,174
401811.680,5755948.650,79.400,223,235,176
401811.630,5755948.740,79.420,226,238,178
401811.930,5755948.520,79.420,234,244,189
401811.860,5755948.610,79.410,238,247,196
401811.830,5755948.700,79.450,239,247,195
401811.780,5755948.790,79.460,237,244,192
401812.070,5755948.570,79.450,234,244,188
401812.010,5755948.660,79.450,240,248,197
401811.960,5755948.750,79.470,245,252,204
401811.910,5755948.840,79.480,244,250,203
401812.230,5755948.620,79.510,242,249,198
401812.180,5755948.710,79.510,240,248,198
401812.120,5755948.800,79.520,238,248,195
401812.060,5755948.890,79.520,234,244,192
401812.000,5755948.980,79.520,232,241,191
401812.350,5755948.670,79.520,246,249,204
401812.290,5755948.760,79.510,230,238,186
401812.240,5755948.850,79.520,220,232,177
401812.170,5755948.940,79.510,227,239,185
401812.100,5755949.030,79.500,239,247,197
401812.480,5755948.720,79.530,246,249,210
401812.400,5755948.810,79.510,230,237,189
401812.330,5755948.900,79.490,218,229,177
401812.260,5755948.990,79.480,225,237,183
401812.210,5755949.080,79.490,225,235,183
401812.570,5755948.780,79.490,251,253,216
401812.520,5755948.860,79.510,247,251,209
401812.450,5755948.950,79.490,239,247,198
401812.380,5755949.040,79.480,231,243,187
401812.320,5755949.130,79.480,223,237,179
401812.680,5755948.830,79.490,241,246,198
401812.630,5755948.920,79.500,244,248,202
401812.560,5755949.010,79.490,241,249,197
401812.510,5755949.090,79.510,238,249,193
401812.460,5755949.180,79.510,235,246,194
401812.780,5755948.880,79.470,235,244,191
401812.730,5755948.970,79.480,229,236,186
401812.690,5755949.060,79.500,217,227,174
401812.620,5755949.150,79.500,214,226,170
401812.560,5755949.240,79.490,228,239,187
401812.910,5755948.930,79.490,226,237,182
401812.840,5755949.020,79.480,232,241,189
401812.780,5755949.110,79.480,227,236,183
401812.730,5755949.200,79.500,214,225,169
401812.670,5755949.290,79.500,223,234,181
401813.020,5755948.980,79.490,224,238,180
401812.970,5755949.070,79.500,231,241,189
401812.880,5755949.160,79.470,236,244,195
401812.840,5755949.250,79.490,237,245,196
401812.790,5755949.340,79.500,231,241,190
401813.150,5755949.030,79.510,230,240,188
401813.100,5755949.120,79.520,242,248,204
401813.020,5755949.210,79.490,242,247,201
401812.960,5755949.300,79.500,235,240,194
401812.880,5755949.390,79.470,235,242,194
401813.270,5755949.080,79.510,240,246,194
401813.210,5755949.170,79.520,246,249,206
401813.140,5755949.260,79.500,249,250,211
401813.070,5755949.350,79.490,250,251,212
401813.010,5755949.440,79.480,247,249,211
401813.410,5755949.210,79.640,229,236,180
401813.350,5755949.300,79.630,247,249,210
401813.200,5755949.400,79.510,254,254,219
401813.120,5755949.490,79.480,252,253,217
401813.520,5755949.260,79.630,226,235,174
401813.450,5755949.350,79.620,240,243,199
401813.360,5755949.440,79.580,244,245,203
401813.250,5755949.540,79.510,242,244,199
401813.670,5755949.230,79.600,194,213,150
401813.600,5755949.320,79.590,217,232,169
401813.550,5755949.400,79.600,230,238,186
401813.460,5755949.490,79.560,230,236,186
401813.370,5755949.590,79.520,225,232,177
401813.790,5755949.280,79.610,172,189,132
401813.700,5755949.370,79.580,194,209,151
401813.670,5755949.450,79.610,217,229,171
401813.630,5755949.540,79.640,231,241,187
401813.480,5755949.640,79.520,223,231,178
401813.900,5755949.330,79.620,191,202,149
401813.840,5755949.410,79.610,215,225,174
401813.780,5755949.500,79.610,226,234,185
401813.740,5755949.590,79.640,238,245,195
401813.610,5755949.680,79.540,235,241,191
401813.920,5755949.390,79.490,200,214,160
401813.900,5755949.470,79.530,214,225,173
401813.950,5755949.540,79.690,231,237,189
401813.870,5755949.630,79.670,234,241,192
401813.730,5755949.730,79.560,235,241,192
401814.010,5755949.440,79.460,217,228,178
401813.970,5755949.520,79.490,218,227,177
401813.920,5755949.610,79.490,234,236,192
401813.950,5755949.690,79.630,233,235,190
401813.870,5755949.780,79.600,241,244,198
401814.160,5755949.480,79.510,226,234,183
401814.080,5755949.570,79.480,232,238,189
401814.020,5755949.660,79.490,236,236,195
401814.070,5755949.740,79.630,220,219,177
401814.010,5755949.820,79.630,230,234,187
401814.260,5755949.620,79.580,232,239,190
401814.220,5755949.700,79.610,227,231,187
401814.190,5755949.780,79.650,220,227,183
401814.120,5755949.870,79.630,221,229,184
401814.370,5755949.660,79.580,204,215,166
401814.340,5755949.750,79.620,213,221,178
401814.260,5755949.840,79.590,213,220,179
401814.210,5755949.930,79.600,228,236,193
401820.470,5755952.470,78.040,104,116,115
401820.570,5755952.510,78.030,106,118,116
401820.480,5755952.610,77.980,108,120,117
401820.430,5755952.690,77.990,111,123,118
401820.390,5755952.770,78.020,113,125,120
401820.350,5755952.850,78.040,113,125,120
401820.720,5755952.540,78.150,110,121,117
401820.660,5755952.630,78.130,111,122,118
401820.510,5755952.740,77.950,114,125,119
401820.420,5755952.840,77.890,115,126,119
401820.450,5755952.890,78.050,116,127,120
401820.790,5755952.590,78.080,114,124,117
401820.740,5755952.680,78.100,115,125,118
401820.580,5755952.800,77.890,117,127,119
401820.520,5755952.880,77.880,118,128,118
401820.520,5755952.940,78.010,119,130,120
401820.880,5755952.640,78.080,116,126,118
401820.820,5755952.730,78.060,117,127,118
401820.660,5755952.850,77.850,120,128,120
401820.610,5755952.930,77.870,121,129,120
401820.620,5755952.990,78.010,121,129,120
401820.900,5755952.770,78.040,120,128,120
401820.830,5755952.860,78.010,122,129,121
401820.770,5755952.950,78.010,122,129,121
401820.730,5755953.030,78.030,120,128,120
401820.980,5755952.890,78.120,126,133,122
401820.940,5755952.970,78.140,125,133,122
401820.830,5755953.070,78.040,122,130,121
401821.050,5755952.940,78.060,163,172,142
401821.000,5755953.020,78.070,181,187,161
401820.940,5755953.110,78.060,145,149,133
401821.160,5755952.920,77.980,137,143,123
401821.140,5755952.980,78.060,200,210,164
401821.090,5755953.070,78.070,237,243,207
401821.040,5755953.150,78.080,205,205,178
401821.320,5755952.870,77.990,127,131,119
401821.280,5755952.950,78.020,135,143,126
401821.230,5755953.030,78.050,209,221,187
401821.180,5755953.110,78.050,241,249,216
401821.130,5755953.190,78.060,235,238,205
401821.440,5755952.910,78.050,129,138,125
401821.400,5755952.980,78.080,149,158,138
401821.330,5755953.070,78.040,191,197,166
401821.280,5755953.150,78.050,209,213,179
401821.220,5755953.240,78.060,207,213,179
401821.540,5755952.950,78.050,163,172,149
401821.490,5755953.030,78.060,223,232,191
401821.440,5755953.110,78.070,216,216,170
401821.380,5755953.190,78.070,163,162,129
401821.320,5755953.280,78.070,148,155,129
401821.640,5755952.990,78.070,166,166,125
401821.590,5755953.070,78.070,221,226,174
401821.530,5755953.150,78.070,232,234,182
401821.470,5755953.240,78.060,218,225,179
401821.420,5755953.320,78.060,212,221,181
401821.740,5755953.030,78.080,147,150,113
401821.680,5755953.110,78.060,155,158,124
401821.600,5755953.210,78.010,159,161,130
401821.560,5755953.280,78.050,206,213,179
401821.500,5755953.370,78.040,241,250,207
401821.820,5755953.080,78.050,179,187,135
401821.770,5755953.160,78.060,152,159,118
401821.710,5755953.240,78.050,128,135,111
401821.640,5755953.330,78.010,156,169,140
401821.580,5755953.420,78.020,215,233,185
401821.920,5755953.120,78.050,156,162,126
401821.870,5755953.200,78.070,171,178,133
401821.790,5755953.290,78.020,142,149,119
401821.730,5755953.380,78.010,146,162,138
401821.680,5755953.460,78.010,200,223,179
401822.000,5755953.170,78.040,111,121,111
401821.940,5755953.250,78.030,121,131,115
401821.880,5755953.340,78.010,115,126,114
401821.820,5755953.420,78.010,106,121,113
401821.770,5755953.500,78.010,134,154,131
401822.100,5755953.210,78.040,114,124,117
401822.040,5755953.290,78.030,116,131,123
401821.980,5755953.380,78.020,145,162,145
401821.920,5755953.460,78.010,129,145,130
401821.860,5755953.550,78.000,122,140,123
401822.190,5755953.250,78.030,124,130,118
401822.130,5755953.340,78.030,155,171,151
401822.070,5755953.420,78.010,214,234,196
401822.010,5755953.500,78.010,211,227,189
401821.960,5755953.590,78.010,195,210,175
401822.280,5755953.300,78.020,130,134,122
401822.220,5755953.380,78.020,169,182,160
401822.160,5755953.470,78.000,227,245,208
401822.110,5755953.550,78.010,227,244,201
401822.070,5755953.620,78.060,221,239,192
401822.360,5755953.340,78.000,119,127,118
401822.310,5755953.420,78.010,130,144,130
401822.240,5755953.510,77.980,200,219,183
401822.220,5755953.580,78.060,220,241,189
401822.180,5755953.650,78.090,212,230,179
401822.480,5755953.380,78.050,128,131,122
401822.410,5755953.460,78.020,124,135,125
401822.380,5755953.530,78.080,199,219,182
401822.330,5755953.610,78.090,222,244,187
401822.280,5755953.700,78.090,209,225,171
401822.550,5755953.430,78.000,135,134,121
401822.490,5755953.510,78.000,131,142,128
401822.460,5755953.580,78.060,196,216,179
401822.410,5755953.660,78.060,230,249,198
401822.350,5755953.740,78.060,226,244,188
401822.660,5755953.460,78.040,150,152,133
401822.590,5755953.550,78.020,188,204,173
401822.540,5755953.630,78.030,215,234,186
401822.490,5755953.710,78.050,229,245,185
401822.440,5755953.790,78.040,224,240,177
401822.740,5755953.510,78.030,175,176,150
401822.690,5755953.590,78.020,221,235,189
401822.630,5755953.670,78.020,224,241,186
401822.580,5755953.750,78.030,217,230,173
401822.530,5755953.830,78.040,222,237,180
401822.820,5755953.550,78.000,157,151,128
401822.770,5755953.630,78.000,177,183,151
401822.720,5755953.710,78.010,191,207,165
401822.670,5755953.800,78.020,210,231,178
401822.630,5755953.870,78.050,216,238,179
401822.930,5755953.590,78.030,136,131,115
401822.870,5755953.670,78.020,118,122,112
401822.820,5755953.750,78.020,156,174,150
401822.760,5755953.830,78.030,205,231,179
401822.720,5755953.910,78.060,213,238,182
401822.970,5755953.710,78.030,121,125,113
401822.910,5755953.800,78.020,158,173,148
401822.870,5755953.870,78.050,214,236,186
401822.810,5755953.950,78.060,213,237,181
401823.000,5755953.840,78.010,134,137,121
401822.940,5755953.920,78.020,151,162,137
401822.910,5755953.990,78.060,175,187,148
401823.080,5755953.880,78.000,145,140,123
401823.030,5755953.960,78.020,121,123,112
401822.990,5755954.040,78.050,125,130,117
401823.080,5755954.080,78.030,158,150,126
401823.350,5755954.260,78.150,213,216,177
401823.480,5755954.220,78.120,192,187,153
401823.420,5755954.310,78.110,227,232,193
401823.590,5755954.250,78.170,203,202,158
401823.530,5755954.340,78.160,207,210,169
401825.410,5755955.060,79.670,153,180,125
401825.360,5755955.140,79.660,152,178,115
401825.460,5755955.170,79.700,155,184,123
401825.410,5755955.240,79.700,162,194,135
401825.560,5755955.190,79.750,160,185,125
401825.640,5755955.230,79.760,150,171,118
401826.330,5755955.140,79.760,81,110,79
401826.250,5755955.240,79.650,85,114,80
401826.380,5755955.200,79.660,78,107,80
401826.320,5755955.290,79.630,80,109,82
401826.260,5755955.370,79.610,83,112,87
401826.420,5755955.190,79.260,89,119,91
401826.390,5755955.260,79.290,87,116,89
401826.340,5755955.330,79.320,81,111,85
401826.290,5755955.400,79.310,74,104,79
401826.270,5755955.460,79.390,73,101,78
401826.500,5755955.230,79.240,81,111,86
401826.460,5755955.300,79.270,85,114,89
401826.410,5755955.380,79.270,82,113,88
401826.360,5755955.450,79.290,84,113,89
401826.320,5755955.520,79.300,82,111,87
401826.280,5755955.580,79.340,78,106,83
401826.570,5755955.270,79.220,96,123,96
401826.530,5755955.350,79.230,92,122,95
401826.480,5755955.420,79.250,91,121,94
401826.430,5755955.490,79.240,82,110,86
401826.380,5755955.570,79.250,84,110,86
401826.350,5755955.630,79.300,99,124,97
401826.650,5755955.320,79.190,133,154,117
401826.600,5755955.390,79.210,123,147,113
401826.550,5755955.460,79.210,128,153,120
401826.500,5755955.540,79.220,141,167,130
401826.460,5755955.610,79.240,130,149,116
401826.420,5755955.680,79.260,116,135,105
401826.720,5755955.360,79.170,179,196,143
401826.670,5755955.430,79.180,155,174,130
401826.630,5755955.500,79.220,161,182,139
401826.580,5755955.570,79.220,202,221,168
401826.530,5755955.650,79.220,176,193,140
401826.490,5755955.720,79.230,149,169,127
401826.790,5755955.400,79.130,201,214,155
401826.770,5755955.460,79.220,187,203,149
401826.720,5755955.530,79.230,207,224,168
401826.660,5755955.610,79.210,220,234,170
401826.610,5755955.690,79.200,214,229,163
401826.560,5755955.760,79.210,211,227,168
401826.900,5755955.420,79.220,218,225,173
401826.850,5755955.490,79.220,217,227,173
401826.800,5755955.570,79.220,219,230,171
401826.740,5755955.650,79.200,209,219,159
401826.680,5755955.730,79.180,219,229,167
401826.630,5755955.810,79.160,232,242,180
401826.970,5755955.460,79.200,218,218,170
401826.920,5755955.540,79.200,218,221,170
401826.870,5755955.610,79.210,221,229,174
401826.820,5755955.680,79.210,220,228,174
401826.770,5755955.760,79.190,226,234,179
401826.710,5755955.840,79.180,237,244,192
401827.040,5755955.500,79.180,229,227,179
401827.000,5755955.570,79.180,224,227,175
401826.950,5755955.650,79.190,214,223,167
401826.900,5755955.720,79.200,225,232,176
401826.840,5755955.800,79.180,237,242,190
401826.790,5755955.880,79.180,247,251,204
401827.120,5755955.540,79.160,240,237,191
401827.080,5755955.610,79.200,241,246,193
401827.030,5755955.680,79.190,233,241,186
401826.980,5755955.760,79.190,240,246,191
401826.920,5755955.840,79.180,243,248,194
401826.870,5755955.910,79.180,244,248,196
401827.230,5755955.560,79.240,244,243,196
401827.160,5755955.640,79.200,248,251,200
401827.110,5755955.720,79.190,245,249,196
401827.060,5755955.800,79.190,246,250,195
401827.010,5755955.870,79.190,238,244,186
401826.970,5755955.940,79.210,231,239,181
401827.310,5755955.580,79.270,245,248,200
401827.260,5755955.670,79.240,246,249,196
401827.190,5755955.750,79.210,241,245,189
401827.140,5755955.830,79.190,240,243,187
401827.080,5755955.910,79.170,234,239,184
401827.040,5755955.980,79.190,242,247,198
401827.360,5755955.680,79.330,241,245,192
401827.270,5755955.790,79.210,235,240,182
401827.220,5755955.860,79.200,233,239,181
401827.160,5755955.950,79.170,233,238,181
401827.110,5755956.020,79.160,245,248,204
401827.440,5755955.710,79.340,230,233,182
401827.360,5755955.820,79.220,221,226,169
401827.300,5755955.900,79.200,222,230,173
401827.260,5755955.970,79.220,225,233,178
401827.200,5755956.050,79.180,237,242,192
401827.520,5755955.750,79.330,222,225,175
401827.460,5755955.830,79.310,226,230,179
401827.380,5755955.930,79.210,226,232,180
401827.340,5755956.000,79.220,222,230,177
401827.280,5755956.090,79.190,230,237,181
401827.600,5755955.780,79.330,226,230,180
401827.530,5755955.880,79.250,231,235,186
401827.460,5755955.970,79.200,232,236,186
401827.420,5755956.030,79.240,216,222,168
401827.360,5755956.110,79.220,227,236,180
401827.660,5755955.830,79.280,226,228,175
401827.620,5755955.900,79.310,230,233,179
401827.560,5755955.980,79.270,236,239,186
401827.500,5755956.060,79.250,233,237,182
401827.450,5755956.140,79.230,233,241,187
401827.750,5755955.860,79.310,227,231,176
401827.690,5755955.940,79.270,216,218,163
401827.650,5755956.010,79.300,209,213,159
401827.590,5755956.090,79.270,224,232,175
401827.530,5755956.180,79.250,235,244,189
401827.830,5755955.890,79.330,234,239,188
401827.780,5755955.970,79.300,224,228,175
401827.730,5755956.040,79.320,217,224,169
401827.680,5755956.120,79.300,220,231,173
401827.620,5755956.200,79.270,228,238,184
401827.920,5755955.920,79.340,233,236,185
401827.860,5755956.000,79.320,238,241,188
401827.810,5755956.080,79.310,239,244,192
401827.760,5755956.150,79.300,233,241,187
401827.700,5755956.230,79.290,222,233,177
401828.000,5755955.950,79.360,241,243,193
401827.950,5755956.030,79.340,234,235,180
401827.900,5755956.100,79.350,235,238,187
401828.070,5755955.990,79.350,242,245,195
401828.030,5755956.060,79.360,240,241,188
401827.950,5755956.160,79.270,239,241,191
401828.160,5755956.010,79.380,237,242,190
401828.110,5755956.090,79.370,236,241,188
401828.240,5755956.050,79.380,226,232,181
401828.190,5755956.120,79.380,231,238,185
401828.320,5755956.080,79.390,232,238,189
401828.270,5755956.160,79.390,234,241,191
401828.220,5755956.230,79.390,236,242,193
401828.400,5755956.110,79.400,244,249,199
401828.350,5755956.190,79.400,244,249,200
401828.300,5755956.260,79.400,247,250,203
401828.480,5755956.150,79.400,245,249,198
401828.560,5755956.170,79.430,242,247,193
401828.720,5755956.240,79.440,240,245,189
401828.670,5755956.310,79.460,242,247,190
401828.790,5755956.280,79.420,236,244,187
401828.740,5755956.340,79.450,243,249,196
401828.690,5755956.420,79.430,245,248,200
401828.870,5755956.310,79.430,241,248,193
401828.820,5755956.370,79.460,244,249,197
401828.770,5755956.450,79.430,243,248,197
401828.720,5755956.530,79.420,234,242,184
401828.900,5755956.410,79.450,243,248,195
401828.850,5755956.480,79.450,239,245,191
401828.800,5755956.560,79.430,235,243,186
401828.750,5755956.630,79.430,237,245,190
401828.700,5755956.700,79.440,246,251,204
401828.970,5755956.440,79.450,247,251,199
401828.930,5755956.510,79.460,246,250,198
401828.870,5755956.590,79.440,243,248,195
401828.820,5755956.670,79.430,243,248,196
401828.780,5755956.740,79.440,241,247,195
401829.080,5755956.430,79.380,239,246,190
401829.060,5755956.470,79.490,243,249,196
401829.010,5755956.540,79.470,247,252,200
401828.950,5755956.620,79.450,242,248,193
401828.900,5755956.700,79.430,237,242,185
401828.860,5755956.770,79.450,235,242,184
401828.820,5755956.830,79.480,240,248,191
401829.140,5755956.490,79.510,247,251,201
401829.090,5755956.570,79.490,248,252,202
401829.030,5755956.650,79.470,246,251,199
401828.970,5755956.730,79.430,243,248,194
401828.930,5755956.800,79.460,237,245,188
401828.890,5755956.860,79.490,228,239,178
401829.220,5755956.520,79.530,251,253,206
401829.170,5755956.600,79.510,251,253,210
401829.110,5755956.680,79.470,251,252,211
401829.060,5755956.760,79.450,247,250,203
401829.010,5755956.830,79.450,243,249,197
401829.300,5755956.550,79.540,247,251,203
401829.240,5755956.630,79.510,253,254,215
401829.190,5755956.710,79.480,253,254,217
401829.130,5755956.790,79.450,249,253,210
401829.080,5755956.870,79.440,247,252,205
401829.380,5755956.580,79.560,239,247,193
401829.320,5755956.660,79.530,248,251,204
401829.270,5755956.740,79.510,252,253,211
401829.230,5755956.790,79.560,250,253,212
401829.190,5755956.860,79.570,250,254,211
401829.460,5755956.600,79.590,235,243,186
401829.400,5755956.680,79.560,242,246,192
401829.350,5755956.760,79.550,251,251,205
401829.300,5755956.830,79.550,248,250,204
401829.250,5755956.910,79.540,251,253,210
401829.190,5755956.990,79.490,253,255,212
401829.530,5755956.640,79.590,243,248,197
401829.480,5755956.720,79.560,247,248,199
401829.430,5755956.790,79.550,247,245,198
401829.370,5755956.870,79.530,250,251,202
401829.320,5755956.940,79.520,250,252,205
401829.270,5755957.020,79.500,249,252,203
401829.550,5755956.750,79.550,251,251,206
401829.500,5755956.820,79.560,243,243,194
401829.450,5755956.900,79.550,245,248,196
401829.400,5755956.980,79.520,245,247,196
401829.340,5755957.060,79.490,243,245,191
401829.580,5755956.860,79.550,245,249,197
401829.530,5755956.930,79.560,240,246,192
401829.470,5755957.010,79.530,242,245,196
401829.420,5755957.090,79.490,241,242,193
401829.610,5755956.960,79.560,242,248,197
401829.550,5755957.040,79.540,240,246,195
401829.500,5755957.110,79.520,241,245,194
401829.620,5755957.070,79.540,246,250,202
401829.570,5755957.150,79.520,238,243,190
401829.700,5755957.110,79.530,249,251,205
401829.650,5755957.180,79.520,245,247,197
401829.770,5755957.130,79.550,248,251,204
401829.730,5755957.200,79.550,246,249,199
401829.990,5755956.950,79.550,247,251,209
401829.950,5755957.010,79.570,244,249,202
401829.900,5755957.090,79.570,247,252,204
401829.850,5755957.160,79.550,247,252,203
401829.800,5755957.240,79.540,250,254,205
401830.110,5755956.910,79.530,252,254,215
401830.070,5755956.980,79.550,251,253,211
401830.020,5755957.050,79.570,249,253,207
401829.960,5755957.130,79.520,248,253,205
401829.920,5755957.190,79.560,249,253,205
401829.880,5755957.260,79.560,248,252,204
401830.180,5755956.940,79.540,248,253,206
401830.140,5755957.020,79.540,248,252,205
401830.090,5755957.080,79.560,247,252,203
401830.050,5755957.150,79.560,245,251,201
401830.000,5755957.220,79.580,250,254,207
401829.960,5755957.290,79.580,250,254,206
401830.260,5755956.980,79.540,238,247,191
401830.210,5755957.040,79.570,238,247,195
401830.170,5755957.100,79.600,246,251,203
401830.120,5755957.190,79.560,245,252,201
401830.080,5755957.250,79.590,247,252,203
401830.030,5755957.320,79.570,250,254,207
401830.330,5755957.010,79.530,244,251,198
401830.280,5755957.080,79.550,243,249,200
401830.240,5755957.140,79.570,243,249,198
401830.190,5755957.210,79.580,245,252,197
401830.150,5755957.280,79.580,243,250,197
401830.100,5755957.350,79.580,245,250,200
401830.400,5755957.040,79.540,238,247,188
401830.360,5755957.110,79.560,242,250,192
401830.320,5755957.170,79.580,240,248,190
401830.270,5755957.240,79.590,244,251,193
401830.220,5755957.310,79.590,245,250,197
401830.170,5755957.380,79.580,247,251,203
401830.470,5755957.080,79.530,236,246,187
401830.430,5755957.140,79.540,236,247,183
401830.390,5755957.200,79.580,241,249,188
401830.340,5755957.270,79.600,240,247,188
401830.300,5755957.330,79.610,235,241,184
401830.240,5755957.420,79.580,244,249,198
401830.210,5755957.470,79.650,250,252,210
401830.550,5755957.100,79.550,239,245,191
401830.500,5755957.170,79.560,232,242,182
401830.460,5755957.240,79.580,241,250,190
401830.420,5755957.300,79.590,240,247,189
401830.370,5755957.370,79.610,235,243,185
401830.320,5755957.440,79.610,238,245,191
401830.280,5755957.510,79.620,250,253,208
401830.620,5755957.130,79.560,250,253,204
401830.570,5755957.210,79.550,244,250,196
401830.530,5755957.270,79.560,242,250,191
401830.480,5755957.340,79.570,238,246,188
401830.440,5755957.410,79.590,238,246,188
401830.390,5755957.480,79.590,242,249,196
401830.350,5755957.540,79.610,252,254,211
401830.690,5755957.170,79.540,248,252,202
401830.640,5755957.240,79.540,243,249,195
401830.590,5755957.320,79.520,238,245,189
401830.550,5755957.380,79.550,232,242,183
401830.510,5755957.450,79.560,242,250,194
401830.460,5755957.510,79.570,249,253,203
401830.770,5755957.190,79.560,241,248,192
401830.730,5755957.260,79.600,239,246,191
401830.670,5755957.340,79.550,238,245,190
401830.620,5755957.410,79.540,235,244,188
401830.570,5755957.480,79.540,243,251,196
401830.530,5755957.550,79.560,245,251,198
401830.800,5755957.290,79.590,242,248,197
401830.740,5755957.380,79.530,242,248,199
401830.690,5755957.450,79.540,244,250,200
401830.650,5755957.510,79.550,246,252,202
401830.600,5755957.580,79.560,244,250,199
401830.860,5755957.320,79.580,246,252,203
401830.810,5755957.410,79.520,248,253,209
401830.760,5755957.480,79.550,247,252,206
401830.720,5755957.540,79.550,245,252,202
401830.680,5755957.610,79.570,248,252,205
401830.640,5755957.670,79.600,246,251,203
401830.970,5755957.300,79.520,250,254,206
401830.920,5755957.380,79.500,249,254,209
401830.870,5755957.460,79.490,253,255,216
401830.840,5755957.500,79.560,253,254,215
401830.790,5755957.580,79.540,249,254,207
401830.740,5755957.650,79.550,246,252,201
401831.050,5755957.320,79.570,250,253,208
401831.030,5755957.360,79.670,252,254,215
401830.940,5755957.480,79.500,254,254,218
401830.910,5755957.530,79.560,251,252,211
401830.860,5755957.610,79.550,246,251,204
401830.820,5755957.670,79.560,242,249,197
401830.770,5755957.740,79.580,242,249,195
401831.100,5755957.380,79.710,254,254,221
401831.030,5755957.490,79.580,253,254,218
401830.980,5755957.560,79.570,248,251,204
401830.940,5755957.630,79.570,245,251,198
401830.890,5755957.700,79.580,243,250,196
401830.850,5755957.770,79.590,245,251,196
401831.180,5755957.400,79.750,253,254,218
401831.130,5755957.470,79.740,251,253,213
401831.090,5755957.540,79.740,248,251,204
401831.040,5755957.610,79.730,242,250,194
401830.960,5755957.730,79.590,242,250,194
401830.920,5755957.800,79.590,242,251,192
401831.240,5755957.450,79.690,246,251,204
401831.190,5755957.520,79.690,242,249,198
401831.150,5755957.590,79.680,244,250,199
401831.100,5755957.660,79.680,245,251,200
401831.030,5755957.770,79.560,246,252,202
401830.990,5755957.830,79.600,243,252,197
401831.310,5755957.480,79.680,242,249,197
401831.260,5755957.560,79.660,237,247,192
401831.210,5755957.630,79.640,235,245,188
401831.160,5755957.700,79.650,243,250,198
401831.120,5755957.770,79.660,248,252,204
401831.070,5755957.840,79.650,246,252,201
401831.380,5755957.520,79.660,246,252,204
401831.330,5755957.590,79.650,245,251,203
401831.280,5755957.660,79.640,240,249,195
401831.230,5755957.730,79.650,238,247,191
401831.190,5755957.800,79.650,239,247,190
401831.140,5755957.870,79.650,236,244,186
401830.660,5755957.190,79.620,241,248,200
401830.560,5755957.290,79.610,237,244,193
401830.440,5755957.390,79.580,237,243,195
401830.360,5755957.490,79.570,242,247,203
401830.720,5755957.250,79.540,240,246,199
401830.690,5755957.380,79.580,238,245,197
401830.610,5755957.480,79.570,240,246,201
401830.580,5755957.610,79.620,242,247,207
401831.050,5755957.400,79.670,246,251,206
401831.010,5755957.520,79.700,244,250,205
401830.930,5755957.630,79.710,243,249,206
401830.740,5755957.700,79.610,241,247,207
401831.190,5755957.490,79.660,242,248,202
401831.090,5755957.590,79.640,237,245,196
401831.010,5755957.700,79.640,236,244,195
401830.930,5755957.800,79.630,239,246,202
401831.300,5755957.560,79.610,237,244,195
401831.210,5755957.670,79.600,235,244,195
401831.200,5755957.800,79.660,233,242,193
401831.160,5755957.920,79.690,234,242,194
401831.560,5755957.560,79.630,238,245,194
401831.510,5755957.670,79.650,238,245,196
401831.470,5755957.790,79.680,237,245,197
401831.430,5755957.910,79.720,234,242,194
401831.700,5755957.640,79.600,240,246,198
401831.600,5755957.740,79.590,237,244,193
401831.560,5755957.860,79.620,239,246,196
401831.540,5755957.990,79.670,241,248,200
401831.900,5755957.750,79.640,242,249,202
401831.830,5755957.860,79.640,235,242,191
401831.730,5755957.960,79.630,234,242,191
401831.720,5755958.090,79.680,239,247,197
401831.960,5755957.940,79.620,231,239,188
401831.900,5755958.050,79.630,229,238,186
401831.890,5755958.180,79.690,234,243,193
401832.030,5755958.270,79.670,234,241,194
401832.090,5755958.330,79.590,241,247,201
401833.000,5755958.260,79.560,228,236,189
401833.160,5755958.350,79.560,229,236,188
401833.100,5755958.460,79.570,234,242,198
401832.990,5755958.550,79.550,240,248,205
401832.920,5755958.660,79.550,237,244,199
401833.340,5755958.450,79.580,238,244,198
401833.230,5755958.540,79.550,235,241,195
401833.160,5755958.650,79.560,226,234,187
401833.090,5755958.760,79.560,225,233,186
401833.430,5755958.520,79.520,240,246,197
401833.360,5755958.620,79.520,234,240,188
401833.290,5755958.730,79.530,232,238,188
401833.210,5755958.830,79.530,239,244,198
401833.550,5755958.590,79.490,233,240,188
401833.490,5755958.700,79.500,238,245,193
401833.440,5755958.820,79.520,240,246,198
401833.380,5755958.930,79.540,244,249,204
401833.680,5755958.680,79.470,233,241,190
401833.620,5755958.790,79.480,231,239,188
401833.570,5755958.900,79.500,233,241,194
401833.500,5755959.010,79.520,243,249,205
401833.900,5755958.790,79.530,238,245,196
401834.230,5755958.810,79.610,235,244,192
401834.150,5755958.910,79.600,238,246,193
401834.350,5755958.880,79.580,238,246,193
401834.290,5755958.990,79.590,238,246,191
401834.480,5755958.960,79.560,230,239,186
401834.420,5755959.070,79.580,227,236,181
401834.560,5755959.160,79.560,220,228,176
401834.510,5755959.270,79.580,223,231,179
401807.930,5755947.080,79.670,230,241,169
401808.040,5755947.110,79.710,230,239,170
401808.120,5755947.170,79.690,233,240,177
401808.200,5755947.220,79.660,232,240,176
401807.330,5755946.680,79.570,215,217,154
401807.410,5755946.730,79.550,215,212,149
401807.490,5755946.790,79.530,227,219,159
401807.580,5755946.840,79.510,232,225,169
401807.660,5755946.900,79.490,233,234,177
401807.770,5755946.920,79.560,237,242,184
401807.870,5755946.960,79.580,231,239,172
401807.980,5755947.000,79.630,227,236,165
401808.080,5755947.030,79.670,229,238,168
401808.170,5755947.070,79.680,231,240,172
401808.250,5755947.130,79.650,227,236,169
401808.340,5755947.190,79.630,210,222,151
401808.430,5755947.240,79.630,206,222,135
401808.510,5755947.290,79.600,204,220,123
401808.590,5755947.350,79.580,209,224,135
401808.660,5755947.420,79.510,212,222,149
401808.750,5755947.470,79.500,215,221,159
401809.220,5755947.690,79.560,228,239,188
401807.380,5755946.580,79.560,212,211,145
401807.470,5755946.640,79.550,217,213,149
401807.550,5755946.690,79.540,223,216,156
401807.630,5755946.750,79.510,230,224,167
401807.730,5755946.790,79.520,234,236,180
401807.830,5755946.830,79.550,240,245,192
401807.920,5755946.870,79.570,239,245,181
401808.020,5755946.910,79.580,231,239,163
401808.130,5755946.930,79.660,232,239,170
401808.220,5755946.980,79.660,235,243,178
401808.290,5755947.050,79.590,224,234,166
401808.380,5755947.100,79.600,225,235,163
401808.470,5755947.160,79.580,205,218,135
401808.550,5755947.210,79.560,207,221,132
401808.640,5755947.260,79.560,205,218,139
401808.720,5755947.320,79.520,205,214,147
401808.810,5755947.380,79.500,208,212,150
401808.890,5755947.430,79.480,232,235,175
401808.980,5755947.480,79.490,222,225,165
401809.080,5755947.510,79.520,221,228,164
401809.180,5755947.550,79.540,229,239,179
401809.280,5755947.590,79.570,223,235,180
401809.370,5755947.630,79.590,222,237,175
401809.470,5755947.680,79.590,222,235,158
401809.560,5755947.720,79.600,225,239,157
401809.650,5755947.780,79.590,229,242,170
401809.730,5755947.840,79.550,230,239,174
401809.810,5755947.890,79.540,232,239,177
401809.900,5755947.940,79.540,239,243,187
401809.990,5755947.990,79.530,228,228,171
401810.070,5755948.060,79.480,225,221,168
401810.160,5755948.100,79.490,233,234,182
401810.250,5755948.150,79.480,233,240,186
401810.340,5755948.200,79.490,223,233,175
401810.430,5755948.250,79.480,225,237,171
401810.530,5755948.290,79.500,216,231,160
401810.630,5755948.330,79.540,212,229,156
401810.710,5755948.380,79.520,218,236,158
401807.440,5755946.480,79.570,222,217,150
401807.510,5755946.560,79.500,221,214,156
401807.640,5755946.560,79.620,226,218,161
401807.690,5755946.650,79.520,232,226,170
401807.780,5755946.700,79.500,242,243,189
401807.870,5755946.750,79.510,246,249,197
401807.990,5755946.770,79.590,243,248,187
401808.080,5755946.810,79.590,235,243,168
401808.170,5755946.860,79.580,221,229,158
401808.260,5755946.900,79.610,222,229,162
401808.330,5755946.980,79.530,216,228,153
401808.430,5755947.020,79.550,211,223,141
401808.510,5755947.080,79.530,212,225,139
401808.620,5755947.100,79.590,220,232,151
401808.710,5755947.150,79.590,215,226,151
401808.790,5755947.210,79.570,218,222,158
401808.880,5755947.260,79.550,215,214,152
401808.960,5755947.310,79.530,229,231,169
401809.040,5755947.370,79.500,214,222,160
401809.150,5755947.410,79.550,215,226,158
401809.230,5755947.460,79.520,225,238,169
401809.320,5755947.520,79.510,225,239,178
401809.410,5755947.560,79.510,225,237,176
401809.500,5755947.600,79.530,224,236,162
401809.590,5755947.650,79.520,231,243,167
401809.690,5755947.690,79.550,227,238,168
401809.780,5755947.740,79.540,235,243,183
401809.850,5755947.810,79.490,241,245,195
401809.940,5755947.860,79.490,241,245,194
401810.040,5755947.900,79.500,222,224,166
401810.130,5755947.960,79.490,227,227,171
401810.220,5755947.990,79.520,237,241,190
401810.300,5755948.060,79.480,227,238,184
401810.400,5755948.090,79.510,218,232,169
401810.490,5755948.140,79.500,219,235,159
401810.580,5755948.200,79.480,211,229,151
401810.670,5755948.240,79.510,216,233,157
401810.760,5755948.290,79.490,224,238,168
401810.850,5755948.340,79.480,203,216,152
401810.940,5755948.390,79.480,179,194,136
401811.030,5755948.440,79.480,209,228,163
401811.120,5755948.490,79.480,222,239,167
401811.210,5755948.540,79.470,232,244,176
401811.290,5755948.610,79.410,239,247,189
401811.370,5755948.670,79.390,241,247,194
401811.460,5755948.720,79.390,233,241,181
401811.570,5755948.740,79.450,229,239,174
401811.660,5755948.780,79.480,231,240,179
401811.760,5755948.820,79.490,234,241,188
401811.840,5755948.880,79.470,236,244,192
401811.930,5755948.930,79.470,242,249,198
401812.020,5755948.980,79.470,241,248,196
401812.110,5755949.030,79.460,240,246,194
401812.200,5755949.070,79.470,233,241,187
401812.290,5755949.120,79.470,229,239,179
401812.380,5755949.170,79.470,235,243,187
401812.660,5755949.300,79.500,221,232,173
401813.220,5755949.560,79.570,243,246,192
401813.400,5755949.640,79.600,231,236,181
401813.780,5755949.790,79.700,234,237,185
401813.860,5755949.840,79.690,237,241,186
401807.510,5755946.380,79.600,210,201,144
401807.580,5755946.450,79.540,223,213,160
401807.670,5755946.490,79.540,234,225,169
401807.760,5755946.540,79.540,230,228,169
401807.850,5755946.590,79.540,235,239,182
401807.950,5755946.630,79.580,241,246,190
401808.040,5755946.680,79.570,245,249,190
401808.130,5755946.720,79.570,237,244,178
401808.220,5755946.770,79.570,217,224,159
401808.330,5755946.800,79.640,223,230,163
401808.360,5755946.910,79.440,212,224,146
401808.450,5755946.960,79.440,212,228,134
401808.670,5755947.010,79.570,221,236,151
401808.760,5755947.060,79.570,213,227,148
401808.850,5755947.110,79.570,214,220,154
401808.930,5755947.170,79.540,225,224,164
401809.010,5755947.220,79.510,233,235,172
401809.100,5755947.270,79.520,215,224,159
401809.210,5755947.300,79.570,216,227,154
401809.270,5755947.380,79.480,226,239,168
401809.370,5755947.420,79.490,223,236,173
401809.460,5755947.470,79.510,227,237,177
401809.560,5755947.500,79.540,223,234,160
401809.650,5755947.550,79.530,235,245,170
401809.730,5755947.620,79.480,239,245,183
401809.810,5755947.680,79.460,247,251,202
401809.910,5755947.720,79.470,246,251,204
401809.990,5755947.770,79.460,238,243,189
401810.090,5755947.820,79.470,226,229,170
401810.170,5755947.870,79.460,238,238,185
401810.270,5755947.910,79.480,240,244,192
401810.370,5755947.940,79.520,222,234,178
401810.460,5755947.980,79.540,221,233,169
401810.540,5755948.060,79.480,223,236,159
401810.630,5755948.100,79.480,225,238,162
401810.720,5755948.150,79.490,225,237,166
401810.810,5755948.190,79.490,228,241,176
401810.910,5755948.230,79.520,194,209,151
401811.000,5755948.290,79.500,178,197,139
401811.080,5755948.340,79.480,210,230,162
401811.170,5755948.390,79.470,230,244,171
401811.260,5755948.450,79.450,230,242,174
401811.330,5755948.530,79.380,236,244,189
401811.420,5755948.580,79.360,245,249,202
401811.530,5755948.590,79.460,234,242,180
401811.620,5755948.640,79.460,224,235,166
401811.720,5755948.670,79.500,224,235,172
401811.810,5755948.720,79.500,237,243,191
401811.890,5755948.790,79.450,245,249,202
401811.980,5755948.840,79.450,243,250,200
401812.070,5755948.880,79.450,235,244,190
401812.160,5755948.940,79.440,235,242,186
401812.250,5755948.980,79.450,238,245,191
401812.340,5755949.030,79.440,233,243,185
401812.430,5755949.080,79.450,236,246,185
401812.520,5755949.130,79.440,235,243,184
401812.610,5755949.180,79.440,220,230,171
401812.700,5755949.230,79.430,213,223,166
401812.800,5755949.260,79.480,229,237,181
401812.890,5755949.310,79.460,235,238,185
401812.980,5755949.340,79.510,247,248,202
401813.080,5755949.390,79.510,250,250,202
401813.170,5755949.420,79.550,250,251,207
401813.270,5755949.460,79.570,247,248,201
401813.360,5755949.510,79.580,232,235,182
401813.450,5755949.550,79.590,220,226,171
401813.540,5755949.600,79.570,223,229,178
401813.630,5755949.650,79.570,232,237,186
401813.720,5755949.700,79.560,230,236,183
401813.800,5755949.750,79.560,238,240,189
401813.900,5755949.790,79.580,240,241,190
401814.000,5755949.800,79.660,230,234,184
401814.090,5755949.860,79.640,213,220,170
401814.170,5755949.920,79.620,219,229,179
401814.260,5755949.990,79.560,219,228,181
401814.340,5755950.050,79.530,207,215,171
401814.430,5755950.100,79.540,217,220,175
401814.520,5755950.150,79.530,221,220,176
401814.610,5755950.200,79.530,231,229,184
401814.700,5755950.250,79.520,228,226,180
401808.540,5755946.830,79.540,207,228,135
401808.720,5755946.930,79.540,213,230,146
401808.800,5755946.980,79.530,208,223,146
401808.900,5755947.020,79.550,214,223,155
401808.980,5755947.070,79.530,229,232,167
401809.070,5755947.130,79.510,227,233,162
401809.170,5755947.160,79.540,214,227,151
401809.260,5755947.220,79.530,218,232,149
401809.340,5755947.270,79.510,218,232,155
401809.430,5755947.320,79.500,218,231,165
401809.520,5755947.370,79.510,220,232,167
401809.630,5755947.390,79.570,216,231,156
401809.710,5755947.440,79.560,234,244,171
401809.810,5755947.480,79.590,236,243,183
401809.890,5755947.540,79.560,246,249,199
401809.990,5755947.580,79.590,246,250,203
401810.080,5755947.630,79.580,232,239,185
401810.160,5755947.690,79.550,216,218,159
401810.230,5755947.770,79.470,236,237,181
401810.320,5755947.810,79.480,232,238,181
401810.430,5755947.830,79.560,228,239,179
401810.510,5755947.900,79.510,229,241,175
401810.590,5755947.960,79.480,224,236,163
401810.680,5755948.000,79.480,230,240,166
401810.780,5755948.050,79.500,236,245,177
401810.870,5755948.090,79.490,232,244,181
401810.960,5755948.130,79.520,191,208,148
401811.050,5755948.190,79.500,183,203,141
401811.140,5755948.240,79.490,214,233,162
401811.220,5755948.300,79.460,236,247,180
401811.310,5755948.360,79.440,230,240,178
401811.400,5755948.410,79.440,233,242,186
401811.490,5755948.450,79.450,241,248,193
401811.590,5755948.480,79.480,233,239,177
401811.690,5755948.510,79.530,224,232,168
401811.780,5755948.550,79.550,221,230,169
401811.870,5755948.600,79.540,236,244,187
401811.940,5755948.700,79.420,248,253,203
401812.030,5755948.750,79.420,242,249,196
401812.120,5755948.800,79.420,230,240,183
401812.210,5755948.840,79.420,232,240,180
401812.300,5755948.880,79.450,235,241,186
401812.390,5755948.930,79.460,243,248,197
401812.480,5755948.980,79.460,242,249,192
401812.570,5755949.030,79.440,240,247,189
401812.660,5755949.080,79.440,216,225,170
401812.750,5755949.120,79.450,220,229,175
401812.850,5755949.150,79.490,233,240,187
401812.950,5755949.190,79.520,235,239,187
401813.040,5755949.240,79.510,242,243,196
401813.130,5755949.290,79.510,249,248,203
401813.220,5755949.330,79.530,250,251,209
401813.310,5755949.360,79.560,243,245,200
401813.410,5755949.400,79.580,228,233,183
401813.500,5755949.450,79.580,225,232,180
401813.590,5755949.500,79.580,222,231,173
401813.680,5755949.550,79.580,227,236,180
401813.770,5755949.600,79.580,234,240,188
401813.860,5755949.640,79.580,238,240,190
401813.950,5755949.690,79.590,234,233,185
401814.050,5755949.690,79.680,226,227,179
401814.130,5755949.770,79.620,215,223,172
401814.220,5755949.830,79.600,221,229,179
401814.310,5755949.880,79.600,220,228,180
401814.400,5755949.940,79.560,211,219,173
401814.480,5755950.000,79.540,226,228,184
401814.570,5755950.050,79.530,231,230,185
401814.660,5755950.090,79.540,233,232,186
401814.750,5755950.150,79.510,231,229,182
401810.280,5755947.680,79.450,223,222,167
401810.380,5755947.710,79.480,222,227,169
401810.480,5755947.750,79.520,228,238,176
401810.570,5755947.790,79.530,237,246,183
401810.660,5755947.840,79.520,232,243,175
401810.740,5755947.890,79.510,230,242,163
401810.830,5755947.940,79.500,227,239,162
401810.920,5755947.990,79.510,216,230,163
401811.010,5755948.050,79.490,184,202,140
401811.100,5755948.100,79.470,203,220,156
401811.180,5755948.150,79.460,224,240,170
401811.270,5755948.210,79.440,237,247,184
401811.360,5755948.260,79.430,232,241,183
401811.440,5755948.320,79.400,226,235,176
401811.540,5755948.360,79.440,232,238,178
401811.640,5755948.390,79.470,229,232,171
401811.740,5755948.420,79.510,223,229,169
401811.830,5755948.460,79.530,224,234,173
401811.920,5755948.500,79.560,234,244,181
401812.010,5755948.560,79.520,234,243,182
401812.080,5755948.660,79.410,238,246,190
401812.170,5755948.700,79.420,234,242,185
401812.260,5755948.740,79.440,231,239,181
401812.350,5755948.780,79.450,229,236,182
401812.440,5755948.830,79.450,244,248,199
401812.540,5755948.880,79.460,246,250,199
401812.620,5755948.930,79.430,241,245,194
401812.710,5755948.980,79.430,223,229,177
401812.800,5755949.030,79.440,227,235,180
401812.910,5755949.040,79.530,225,234,176
401813.000,5755949.080,79.540,234,240,186
401813.090,5755949.140,79.530,238,241,192
401813.180,5755949.180,79.540,248,249,204
401813.270,5755949.220,79.540,248,249,204
401813.360,5755949.270,79.560,235,237,185
401813.460,5755949.300,79.580,230,232,178
401813.550,5755949.340,79.610,229,234,177
401813.640,5755949.390,79.600,218,227,164
