//X,Y,Z,R,G,B
401921.090,5755791.440,80.530,114,136,86
401921.040,5755791.540,80.550,105,126,79
401920.980,5755791.600,80.520,111,133,82
401920.930,5755791.680,80.510,125,149,96
401921.180,5755791.530,80.530,114,137,84
401921.130,5755791.630,80.550,126,148,96
401921.070,5755791.700,80.530,118,141,86
401921.020,5755791.790,80.530,137,159,102
401921.270,5755791.650,80.570,76,100,56
401921.220,5755791.760,80.590,98,120,70
401921.160,5755791.830,80.580,121,141,91
401921.100,5755791.900,80.550,134,154,103
401921.050,5755791.970,80.530,156,176,126
401921.410,5755791.680,80.600,113,140,105
401921.360,5755791.770,80.610,77,102,62
401921.300,5755791.860,80.610,77,94,53
401921.240,5755791.900,80.560,134,147,99
401921.190,5755791.970,80.530,129,152,101
401921.490,5755791.760,80.590,167,184,149
401921.440,5755791.830,80.580,137,162,115
401921.380,5755791.900,80.560,109,125,79
401921.330,5755792.000,80.570,145,155,109
401921.280,5755792.180,80.670,164,186,131
401921.570,5755791.820,80.560,159,179,128
401921.520,5755791.910,80.560,139,164,108
401921.460,5755791.990,80.560,141,160,102
401921.420,5755792.140,80.620,147,162,110
401921.660,5755791.940,80.600,150,174,111
401921.600,5755792.000,80.570,154,179,115
401921.550,5755792.090,80.570,143,164,107
401921.490,5755792.130,80.520,139,161,109
401921.740,5755791.990,80.550,188,211,142
401921.830,5755792.150,80.630,215,234,170
401921.910,5755792.250,80.650,174,201,139
401922.040,5755792.170,80.560,172,198,131
401921.990,5755792.250,80.550,158,188,125
401922.060,5755792.280,80.490,135,165,107
401922.140,5755792.330,80.450,104,135,75
401922.090,5755792.390,80.410,81,115,55
401922.220,5755792.350,80.370,125,156,95
401922.160,5755792.370,80.300,89,125,69
401922.300,5755792.380,80.310,150,181,118
401922.240,5755792.440,80.270,104,140,86
401922.370,5755792.400,80.230,155,185,122
401922.320,5755792.480,80.220,107,141,84
401922.260,5755792.570,80.220,80,113,56
401922.450,5755792.460,80.200,153,183,118
401922.400,5755792.530,80.180,103,138,81
401922.340,5755792.610,80.170,73,106,52
401922.290,5755792.670,80.140,66,95,48
401922.230,5755792.680,80.060,77,104,56
401922.480,5755792.580,80.130,133,168,111
401922.420,5755792.650,80.120,78,113,63
401922.370,5755792.710,80.090,70,98,49
401922.310,5755792.740,80.030,88,111,62
401922.250,5755792.840,80.040,105,126,75
401922.200,5755792.890,80.000,131,154,97
401922.550,5755792.620,80.090,134,165,106
401922.500,5755792.680,80.060,99,131,77
401922.440,5755792.770,80.050,83,110,59
401922.390,5755792.810,80.010,112,133,80
401922.330,5755792.860,79.960,127,153,95
401922.270,5755792.900,79.910,105,136,76
401922.630,5755792.650,80.020,126,156,94
401922.580,5755792.720,80.000,117,146,88
401922.520,5755792.820,80.010,110,136,83
401922.470,5755792.880,79.990,114,138,85
401922.400,5755792.850,79.850,105,130,77
401922.350,5755792.910,79.820,116,141,84
401922.710,5755792.700,79.970,113,142,86
401922.660,5755792.760,79.950,81,113,62
401922.600,5755792.870,79.970,101,128,77
401922.550,5755792.920,79.930,103,129,78
401922.480,5755792.870,79.780,99,122,72
401922.420,5755792.920,79.730,135,155,97
401922.740,5755792.820,79.920,93,121,71
401922.680,5755792.910,79.920,106,134,79
401922.630,5755792.990,79.920,117,146,89
401922.560,5755792.900,79.710,127,151,97
401922.510,5755793.030,79.750,140,163,104
401922.810,5755792.850,79.860,135,159,100
401922.760,5755792.940,79.860,137,165,103
401922.710,5755793.020,79.850,130,161,98
401922.650,5755793.040,79.770,132,156,100
401922.590,5755793.110,79.740,143,169,107
401922.890,5755792.820,79.710,155,181,113
401922.840,5755792.980,79.800,138,168,100
401922.780,5755793.010,79.730,130,160,93
401922.720,5755793.030,79.660,137,163,100
401922.670,5755793.140,79.680,146,174,110
401922.920,5755793.060,79.790,168,198,125
401922.860,5755793.130,79.770,139,171,104
401922.810,5755793.180,79.730,111,139,75
401922.750,5755793.260,79.730,100,129,65
401923.050,5755792.960,79.680,121,148,85
401923.000,5755793.140,79.780,110,140,79
401922.950,5755793.200,79.760,102,129,69
401922.890,5755793.240,79.700,114,139,73
401923.130,5755793.110,79.750,124,153,99
401923.080,5755793.170,79.720,110,139,85
401923.210,5755793.160,79.720,133,159,101
401923.300,5755793.260,79.730,152,180,115
401925.160,5755794.580,78.570,144,173,87
401925.290,5755794.650,78.650,168,192,103
401925.240,5755794.740,78.670,159,185,100
401925.370,5755794.720,78.640,174,201,106
401925.320,5755794.810,78.650,160,186,102
401925.260,5755794.900,78.650,131,157,84
401925.450,5755794.790,78.630,183,211,108
401925.400,5755794.880,78.630,157,186,97
401925.340,5755794.960,78.630,107,136,65
401925.290,5755795.030,78.600,92,118,60
401925.530,5755794.870,78.630,153,182,83
401925.470,5755794.970,78.640,139,168,81
401925.420,5755795.070,78.670,115,144,72
401925.370,5755795.150,78.650,118,143,85
401925.560,5755794.930,78.480,128,156,76
401925.500,5755795.130,78.640,120,149,81
401925.450,5755795.080,78.460,100,125,67
401925.390,5755795.200,78.490,95,126,70
401925.640,5755794.940,78.400,109,138,75
401925.580,5755795.030,78.390,106,137,82
401925.530,5755795.120,78.400,107,132,81
401925.470,5755795.220,78.420,109,137,85
401925.420,5755795.310,78.420,63,89,51
401925.660,5755795.040,78.300,75,104,62
401925.610,5755795.170,78.360,75,102,61
401925.550,5755795.240,78.330,96,120,78
401925.500,5755795.340,78.350,87,111,72
401925.740,5755795.040,78.190,66,91,55
401925.690,5755795.210,78.310,58,81,51
401925.630,5755795.270,78.260,76,99,65
401925.580,5755795.350,78.260,79,104,69
401925.530,5755795.450,78.280,62,83,61
401925.820,5755795.090,78.160,61,79,54
401925.770,5755795.180,78.160,51,68,48
401925.710,5755795.260,78.150,60,79,57
401925.660,5755795.360,78.160,69,89,67
401925.610,5755795.460,78.190,58,74,61
401925.900,5755795.130,78.090,71,85,63
401925.850,5755795.210,78.090,55,69,53
401925.800,5755795.260,78.040,52,65,52
401925.740,5755795.370,78.070,61,74,63
401925.690,5755795.460,78.080,59,71,62
401925.930,5755795.170,77.930,57,70,57
401925.880,5755795.220,77.880,52,64,54
401925.820,5755795.300,77.860,53,64,55
401925.770,5755795.450,77.950,53,64,57
401925.710,5755795.510,77.920,48,57,52
401925.960,5755795.220,77.760,35,43,37
401925.910,5755795.290,77.730,32,39,34
401925.850,5755795.480,77.870,30,37,32
401925.790,5755795.580,77.890,26,33,30
401926.040,5755795.250,77.690,24,29,25
401925.990,5755795.310,77.660,25,30,26
401925.920,5755795.610,77.940,23,27,23
401925.870,5755795.690,77.940,23,28,24
401926.120,5755795.330,77.690,30,33,28
401926.070,5755795.390,77.660,29,32,27
401926.010,5755795.630,77.860,28,31,26
401925.950,5755795.680,77.810,30,32,27
401926.200,5755795.410,77.690,45,46,35
401926.140,5755795.490,77.680,36,38,30
401926.090,5755795.650,77.780,33,35,27
401926.030,5755795.700,77.730,35,36,29
401925.980,5755795.810,77.770,33,35,29
401926.280,5755795.450,77.630,82,75,46
401926.220,5755795.540,77.630,49,48,34
401926.170,5755795.690,77.720,41,42,31
401926.120,5755795.700,77.620,49,50,38
401926.060,5755795.830,77.680,47,47,37
401926.360,5755795.500,77.590,100,90,49
401926.300,5755795.580,77.580,56,54,36
401926.240,5755795.760,77.710,51,49,35
401926.200,5755795.690,77.490,65,61,44
401926.140,5755795.810,77.540,60,57,42
401926.440,5755795.560,77.560,73,68,37
401926.380,5755795.650,77.570,52,50,32
401926.320,5755795.860,77.740,54,52,36
401926.270,5755795.920,77.700,61,59,41
401926.520,5755795.610,77.520,57,55,33
401926.460,5755795.710,77.540,55,52,34
401926.400,5755795.930,77.720,63,58,39
401926.340,5755796.020,77.730,70,65,43
401926.590,5755795.710,77.540,57,55,34
401926.540,5755795.790,77.540,61,57,37
401926.480,5755795.990,77.690,77,69,45
401926.420,5755796.080,77.700,73,67,44
401926.670,5755795.770,77.520,60,57,36
401926.620,5755795.860,77.530,64,59,39
401926.560,5755796.060,77.680,68,62,40
401926.500,5755796.140,77.670,57,55,38
401926.750,5755795.840,77.510,68,63,39
401926.690,5755795.940,77.520,59,56,38
401926.630,5755796.130,77.660,50,48,32
401926.580,5755796.230,77.690,48,48,33
401926.830,5755795.920,77.510,75,70,43
401926.770,5755795.990,77.480,53,51,35
401926.710,5755796.200,77.660,48,48,34
401926.650,5755796.310,77.690,47,48,33
401926.900,5755796.030,77.540,64,61,39
401926.850,5755796.080,77.490,51,50,34
401926.790,5755796.270,77.650,49,48,33
401926.980,5755796.090,77.520,67,63,42
401926.920,5755796.180,77.520,52,50,34
401926.860,5755796.370,77.670,51,49,34
401927.110,5755796.070,77.500,70,65,41
401927.060,5755796.150,77.490,62,59,39
401927.000,5755796.250,77.510,56,54,36
401926.940,5755796.490,77.720,60,58,40
401927.180,5755796.170,77.530,59,57,38
401927.130,5755796.240,77.500,58,57,38
401927.080,5755796.320,77.490,71,66,44
401927.010,5755796.530,77.670,83,77,51
401927.260,5755796.290,77.580,57,56,36
401927.210,5755796.350,77.550,62,60,40
401927.150,5755796.450,77.560,83,74,46
401927.090,5755796.600,77.660,108,94,53
401927.380,5755796.290,77.600,56,55,37
401927.330,5755796.410,77.640,59,58,39
401927.280,5755796.470,77.600,62,60,39
401927.220,5755796.560,77.610,82,75,46
401927.170,5755796.630,77.590,98,87,49
401927.460,5755796.360,77.590,68,67,46
401927.410,5755796.440,77.580,70,67,45
401927.350,5755796.610,77.700,73,71,47
401927.290,5755796.680,77.680,77,76,48
401927.240,5755796.740,77.640,72,69,43
401927.530,5755796.510,77.690,89,85,56
401927.480,5755796.590,77.680,99,94,62
401927.420,5755796.710,77.730,128,136,93
401927.370,5755796.790,77.720,116,134,91
401927.320,5755796.830,77.660,84,90,57
401927.650,5755796.520,77.710,115,106,66
401927.600,5755796.600,77.710,124,115,71
401927.550,5755796.670,77.680,124,118,73
401927.490,5755796.780,77.720,166,177,116
401927.440,5755796.890,77.750,164,193,130
401927.730,5755796.610,77.730,143,133,80
401927.670,5755796.720,77.770,141,132,79
401927.620,5755796.820,77.790,126,116,67
401927.570,5755796.850,77.710,158,156,93
401927.520,5755796.960,77.740,199,216,144
401927.850,5755796.670,77.830,185,197,112
401927.810,5755796.660,77.690,145,153,88
401927.750,5755796.780,77.740,118,113,66
401927.690,5755796.890,77.770,131,121,71
401927.640,5755796.970,77.770,153,145,82
401927.880,5755796.770,77.730,135,149,85
401927.820,5755796.880,77.770,116,115,67
401927.770,5755796.970,77.770,129,123,72
401927.720,5755797.030,77.740,141,132,73
401928.000,5755796.760,77.740,166,167,88
401927.950,5755796.840,77.730,119,118,59
401927.900,5755796.920,77.720,142,134,74
401927.850,5755797.000,77.720,135,127,71
401927.790,5755797.110,77.750,150,140,75
401928.080,5755796.810,77.690,158,151,87
401928.030,5755796.890,77.690,126,117,62
401927.970,5755796.980,77.700,141,134,73
401927.920,5755797.110,77.770,141,134,73
401927.860,5755797.190,77.750,173,163,86
401928.160,5755796.880,77.680,131,119,71
401928.100,5755796.960,77.680,168,153,93
401928.050,5755797.080,77.730,183,174,103
401927.990,5755797.190,77.770,182,175,97
401927.940,5755797.270,77.750,203,199,102
401928.230,5755796.950,77.670,119,107,65
401928.180,5755797.030,77.670,155,138,81
401928.120,5755797.160,77.740,178,166,98
401928.060,5755797.270,77.770,175,163,87
401928.010,5755797.360,77.770,201,194,103
401928.300,5755797.020,77.660,161,142,89
401928.240,5755797.160,77.750,149,133,80
401928.190,5755797.250,77.760,127,117,65
401928.140,5755797.350,77.770,155,144,76
401928.080,5755797.430,77.760,191,189,101
401928.380,5755797.080,77.640,154,137,82
401928.320,5755797.240,77.750,155,143,84
401928.260,5755797.340,77.780,155,148,82
401928.210,5755797.430,77.790,182,178,87
401928.450,5755797.160,77.650,138,128,67
401928.400,5755797.250,77.650,144,137,70
401928.330,5755797.420,77.790,147,138,66
401928.280,5755797.510,77.780,182,175,80
401928.520,5755797.260,77.670,162,149,79
401928.460,5755797.420,77.790,173,167,90
401928.400,5755797.510,77.810,151,144,71
401928.350,5755797.590,77.790,176,169,86
401928.640,5755797.320,77.780,152,142,71
401928.580,5755797.410,77.790,158,147,76
401928.530,5755797.480,77.770,180,170,89
401928.470,5755797.600,77.820,169,161,84
401928.420,5755797.680,77.810,162,155,82
401928.710,5755797.400,77.780,155,155,73
401928.660,5755797.470,77.760,143,136,62
401928.610,5755797.540,77.750,157,147,66
401928.550,5755797.650,77.790,174,168,88
401928.500,5755797.740,77.790,142,138,72
401928.830,5755797.390,77.780,161,156,88
401928.780,5755797.470,77.770,151,148,93
401928.730,5755797.540,77.750,154,142,73
401928.680,5755797.610,77.740,203,195,94
401928.620,5755797.720,77.780,202,200,103
401928.860,5755797.520,77.740,144,142,94
401928.800,5755797.610,77.740,148,138,74
401928.750,5755797.680,77.730,187,179,93
401928.700,5755797.750,77.710,170,167,83
401928.650,5755797.850,77.740,167,164,81
401928.980,5755797.510,77.730,145,143,86
401928.930,5755797.590,77.730,147,145,87
401928.880,5755797.660,77.710,152,144,79
401928.830,5755797.730,77.700,147,141,76
401928.780,5755797.810,77.690,123,120,61
401928.720,5755797.910,77.720,152,146,75
401929.060,5755797.570,77.710,200,210,118
401929.010,5755797.640,77.690,170,181,103
401928.960,5755797.710,77.680,137,129,72
401928.900,5755797.790,77.660,145,133,80
401928.850,5755797.870,77.670,124,118,67
401929.130,5755797.620,77.670,161,164,88
401929.080,5755797.690,77.660,139,139,71
401929.030,5755797.770,77.650,140,127,75
401928.980,5755797.850,77.650,139,126,78
401928.930,5755797.940,77.660,132,122,76
401928.870,5755798.030,77.670,152,145,88
401929.210,5755797.680,77.650,107,100,58
401929.160,5755797.740,77.620,117,106,63
401929.110,5755797.800,77.590,147,130,80
401929.050,5755797.910,77.620,145,130,81
401929.000,5755798.000,77.630,148,131,82
401928.950,5755798.090,77.630,169,155,94
401929.280,5755797.750,77.650,146,131,82
401929.230,5755797.810,77.620,161,141,86
401929.170,5755797.940,77.690,171,149,89
401929.120,5755798.020,77.670,167,147,87
401929.060,5755798.130,77.720,164,144,87
401929.350,5755797.830,77.650,173,150,90
401929.300,5755797.900,77.630,176,152,90
401929.240,5755798.010,77.680,179,155,92
401929.180,5755798.120,77.720,179,155,93
401929.130,5755798.210,77.730,175,153,92
401929.420,5755797.880,77.620,176,152,91
401929.380,5755797.940,77.590,176,153,91
401929.320,5755798.020,77.580,175,152,90
401929.270,5755798.110,77.580,176,153,91
401929.220,5755798.210,77.610,175,154,92
401929.400,5755798.090,77.570,172,151,86
401929.340,5755798.220,77.640,179,159,92
401929.280,5755798.320,77.670,176,155,90
401929.410,5755798.300,77.650,167,155,85
401929.350,5755798.410,77.690,166,147,86
401929.480,5755798.370,77.640,130,126,65
401929.610,5755798.320,77.580,146,135,67
401929.550,5755798.420,77.600,149,142,74
401929.500,5755798.490,77.580,152,142,80
401929.680,5755798.390,77.580,139,128,70
401929.630,5755798.470,77.570,128,118,64
401929.570,5755798.570,77.590,140,129,79
401929.750,5755798.470,77.590,123,113,69
401929.700,5755798.540,77.570,132,118,75
401930.480,5755799.180,78.190,197,199,130
401930.670,5755799.010,78.060,210,208,141
401930.600,5755799.160,78.180,213,223,147
401930.540,5755799.260,78.210,211,224,142
401930.640,5755799.330,78.340,218,233,153
401915.950,5755787.680,81.090,132,151,97
401915.910,5755787.780,81.110,114,138,84
401915.860,5755787.880,81.120,117,142,85
401916.020,5755787.620,80.960,188,192,146
401916.040,5755787.730,81.050,173,183,128
401915.980,5755787.830,81.050,138,156,100
401915.940,5755787.920,81.060,168,187,128
401915.880,5755788.020,81.060,174,194,134
401916.120,5755787.670,80.930,228,223,193
401916.080,5755787.770,80.950,204,203,162
401916.040,5755787.870,80.960,165,175,125
401916.010,5755787.970,81.010,169,186,128
401915.970,5755788.070,81.020,197,216,155
401916.220,5755787.730,80.910,239,230,212
401916.180,5755787.830,80.930,227,219,192
401916.130,5755787.920,80.930,197,198,157
401916.100,5755788.020,80.970,189,201,144
401916.050,5755788.120,80.970,205,222,161
401916.400,5755787.910,81.070,239,228,209
401916.350,5755788.010,81.070,231,225,195
401916.290,5755788.100,81.060,216,223,170
401916.220,5755788.190,81.040,220,234,169
401916.510,5755787.970,81.050,244,235,219
401916.450,5755788.060,81.040,246,240,216
401916.400,5755788.150,81.050,235,237,188
401916.330,5755788.240,81.030,226,236,165
401916.630,5755788.030,81.050,247,242,231
401916.550,5755788.110,81.020,250,246,228
401916.500,5755788.210,81.030,216,214,177
401916.450,5755788.300,81.030,203,210,152
401916.380,5755788.390,81.000,227,235,178
401916.720,5755788.080,81.020,253,252,244
401916.670,5755788.170,81.020,252,250,237
401916.620,5755788.270,81.030,232,227,203
401916.560,5755788.360,81.020,206,209,162
401916.510,5755788.450,81.030,213,226,164
401916.760,5755788.220,80.990,252,252,242
401916.720,5755788.320,81.000,247,244,227
401916.660,5755788.410,81.000,235,234,192
401916.610,5755788.500,81.010,219,229,154
401916.810,5755788.370,80.970,251,249,235
401916.760,5755788.460,80.980,251,250,223
401916.720,5755788.560,80.990,238,244,185
401916.930,5755788.430,80.970,250,247,235
401916.870,5755788.520,80.970,250,248,227
401916.830,5755788.610,80.980,232,239,188
401916.820,5755788.720,81.050,202,220,152
401917.040,5755788.480,80.960,253,251,240
401916.990,5755788.580,80.980,247,245,223
401916.950,5755788.670,80.990,222,225,181
401916.910,5755788.770,81.010,192,206,148
401917.150,5755788.540,80.960,252,250,236
401917.130,5755788.640,81.000,249,246,222
401917.090,5755788.730,81.020,234,233,194
401917.040,5755788.830,81.030,218,226,173
401917.300,5755788.610,81.010,252,250,236
401917.250,5755788.700,81.010,250,247,226
401917.220,5755788.790,81.040,230,233,196
401917.160,5755788.890,81.030,205,219,161
401917.140,5755788.990,81.080,206,224,156
401917.440,5755788.670,81.040,254,252,240
401917.370,5755788.750,81.010,246,244,225
401917.320,5755788.850,81.030,191,194,154
401917.280,5755788.940,81.040,174,187,128
401917.260,5755789.040,81.080,173,191,116
401917.520,5755788.710,80.990,254,253,242
401917.460,5755788.810,80.990,251,249,233
401917.420,5755788.900,81.000,233,232,199
401917.370,5755788.990,81.010,213,220,164
401917.330,5755789.090,81.020,208,221,152
401917.620,5755788.770,80.960,254,254,246
401917.570,5755788.860,80.980,254,253,243
401917.530,5755788.960,81.000,248,247,226
401917.490,5755789.050,81.010,237,241,196
401917.440,5755789.140,81.020,231,241,178
401917.690,5755788.810,80.910,255,254,249
401917.680,5755788.920,80.970,254,255,249
401917.630,5755789.010,80.970,253,252,239
401917.600,5755789.110,81.010,248,249,216
401917.550,5755789.200,81.010,235,241,185
401917.870,5755788.990,81.070,255,255,251
401917.730,5755789.060,80.960,254,254,245
401917.720,5755789.160,81.010,249,248,222
401917.690,5755789.260,81.050,235,238,187
401917.610,5755789.340,81.010,227,233,174
401917.960,5755789.040,81.040,255,255,251
401917.880,5755789.120,81.000,254,253,244
401917.840,5755789.220,81.030,249,247,224
401917.820,5755789.320,81.070,245,246,197
401917.700,5755789.390,80.980,244,248,185
401918.070,5755789.090,81.040,255,255,251
401918.140,5755789.220,81.220,254,254,245
401918.160,5755789.330,81.330,252,250,234
401918.060,5755789.410,81.260,251,249,211
401917.960,5755789.480,81.180,247,249,190
401917.930,5755789.580,81.210,245,248,196
401918.220,5755789.260,81.170,255,254,247
401918.190,5755789.360,81.200,253,250,238
401918.120,5755789.450,81.180,251,249,223
401918.020,5755789.530,81.120,247,247,204
401918.080,5755789.640,81.270,240,244,194
401918.310,5755789.310,81.140,254,254,247
401918.270,5755789.410,81.160,251,250,237
401918.210,5755789.500,81.140,247,246,217
401918.150,5755789.580,81.130,244,245,204
401918.140,5755789.680,81.190,242,246,197
401918.420,5755789.370,81.140,254,253,242
401918.380,5755789.460,81.150,246,244,219
401918.310,5755789.550,81.120,225,223,180
401918.250,5755789.640,81.110,238,239,191
401918.250,5755789.740,81.190,235,239,183
401918.440,5755789.500,81.090,249,248,210
401918.430,5755789.600,81.140,236,234,183
401918.390,5755789.700,81.170,237,240,184
401918.390,5755789.800,81.240,227,233,171
401918.360,5755789.890,81.270,203,214,142
401918.580,5755789.670,81.190,235,236,182
401918.570,5755789.770,81.260,233,240,178
401918.490,5755789.850,81.230,211,221,149
401918.450,5755789.940,81.230,205,216,139
401918.670,5755789.720,81.170,225,231,175
401918.680,5755789.820,81.260,218,230,163
401918.670,5755789.920,81.320,210,223,153
401918.560,5755790.000,81.240,214,225,148
401918.590,5755790.110,81.360,207,219,140
401918.810,5755789.780,81.220,210,220,162
401918.840,5755789.890,81.340,181,197,128
401918.800,5755789.980,81.360,184,201,129
401918.690,5755790.050,81.260,197,217,136
401918.670,5755790.150,81.310,202,223,140
401918.900,5755789.830,81.180,206,212,156
401918.910,5755789.930,81.270,192,205,139
401918.840,5755790.020,81.240,188,203,129
401918.790,5755790.110,81.240,187,210,130
401918.750,5755790.200,81.270,177,203,124
401919.020,5755789.880,81.190,219,222,178
401919.010,5755789.980,81.260,203,215,154
401918.940,5755790.070,81.230,202,216,145
401918.910,5755790.160,81.260,182,201,130
401918.870,5755790.250,81.280,183,205,131
401919.110,5755789.930,81.160,208,213,170
401919.090,5755790.030,81.210,180,193,135
401919.040,5755790.120,81.210,183,193,132
401919.000,5755790.210,81.240,167,181,117
401918.970,5755790.300,81.270,174,196,125
401919.210,5755789.980,81.150,190,196,151
401919.170,5755790.080,81.170,176,193,132
401919.140,5755790.170,81.200,181,197,134
401919.100,5755790.260,81.220,189,206,140
401919.030,5755790.350,81.190,162,184,117
401919.020,5755790.440,81.250,165,187,113
401919.280,5755790.130,81.170,175,189,131
401919.240,5755790.220,81.190,177,188,130
401919.180,5755790.310,81.180,173,188,127
401919.150,5755790.400,81.220,177,198,130
401919.140,5755790.500,81.280,189,208,131
401919.380,5755790.180,81.150,151,163,109
401919.360,5755790.280,81.210,182,199,141
401919.330,5755790.370,81.240,194,212,151
401919.260,5755790.450,81.220,188,210,141
401919.220,5755790.540,81.220,188,210,131
401919.520,5755790.240,81.200,165,177,127
401919.490,5755790.330,81.230,183,202,145
401919.470,5755790.430,81.290,177,196,133
401919.340,5755790.500,81.160,168,190,122
401919.330,5755790.600,81.230,179,202,129
401919.670,5755790.400,81.360,190,210,147
401919.640,5755790.490,81.380,183,204,142
401919.560,5755790.580,81.340,168,189,122
401919.470,5755790.660,81.270,179,199,128
401919.780,5755790.450,81.360,191,211,138
401919.790,5755790.550,81.440,184,204,132
401919.640,5755790.620,81.290,181,201,130
401919.560,5755790.700,81.260,184,204,138
401919.520,5755790.790,81.270,180,199,126
401919.880,5755790.500,81.350,143,163,102
401919.870,5755790.600,81.410,154,174,103
401919.740,5755790.670,81.280,170,191,123
401919.640,5755790.750,81.210,174,193,131
401919.570,5755790.840,81.180,152,167,103
401919.930,5755790.540,81.250,128,147,101
401919.920,5755790.640,81.320,150,168,110
401919.850,5755790.720,81.290,186,203,141
401919.760,5755790.800,81.230,167,187,129
401919.820,5755790.910,81.400,155,174,116
401920.060,5755790.700,81.370,184,197,144
401920.470,5755791.290,81.080,155,178,101
401920.590,5755791.400,81.350,155,177,103
401920.520,5755791.490,81.330,167,183,113
401920.780,5755791.180,81.250,143,164,101
401920.610,5755791.240,81.050,160,181,116
401920.570,5755791.330,81.070,150,169,100
401920.540,5755791.430,81.110,123,142,83
401920.560,5755791.530,81.220,130,150,93
401920.790,5755791.210,81.090,143,163,105
401920.730,5755791.300,81.070,160,178,111
401920.660,5755791.380,81.040,151,166,111
401920.720,5755791.490,81.220,155,167,121
401920.640,5755791.570,81.180,124,144,97
401920.750,5755791.530,81.100,185,197,153
401920.690,5755791.610,81.090,151,169,120
401920.800,5755791.570,81.000,164,182,132
401920.730,5755791.650,80.970,155,173,124
401920.740,5755791.690,80.830,144,165,112
401920.740,5755791.720,80.640,141,161,113
401920.810,5755791.760,80.590,97,118,76
401920.950,5755791.720,80.550,117,140,90
401920.930,5755791.820,80.620,89,110,67
401921.070,5755791.780,80.590,110,135,83
401921.040,5755791.870,80.610,113,137,87
401920.990,5755791.960,80.620,134,154,106
401921.150,5755791.730,80.460,107,130,84
401921.110,5755791.820,80.480,117,139,93
401921.080,5755791.910,80.500,135,158,106
401921.080,5755792.000,80.600,141,158,110
401921.300,5755791.690,80.440,116,129,93
401921.240,5755791.770,80.420,108,128,84
401921.210,5755791.870,80.470,100,122,76
401921.190,5755791.960,80.510,147,169,115
401921.180,5755792.050,80.580,163,181,129
401921.420,5755791.740,80.470,159,168,135
401921.360,5755791.830,80.450,124,143,96
401921.320,5755791.920,80.480,118,141,92
401921.330,5755792.010,80.570,148,173,114
401921.260,5755792.100,80.530,174,197,133
401921.450,5755791.870,80.430,122,141,89
401921.410,5755791.960,80.450,124,147,92
401921.370,5755792.050,80.460,141,166,103
401921.310,5755792.140,80.460,146,172,107
401921.550,5755791.920,80.430,133,152,91
401921.500,5755792.010,80.420,98,118,63
401921.460,5755792.100,80.440,95,119,59
401921.420,5755792.190,80.470,106,130,75
401921.590,5755792.060,80.400,94,115,59
401921.550,5755792.150,80.410,106,127,70
401921.510,5755792.240,80.430,108,131,77
401921.470,5755792.330,80.450,119,145,92
401921.660,5755792.100,80.340,180,199,141
401921.630,5755792.190,80.370,197,213,154
401921.590,5755792.280,80.400,165,182,121
401921.550,5755792.370,80.410,122,143,81
401921.750,5755792.150,80.320,216,231,177
401921.720,5755792.240,80.350,221,235,172
401921.680,5755792.330,80.360,223,235,169
401921.620,5755792.420,80.360,178,194,122
401921.840,5755792.200,80.290,176,200,133
401921.800,5755792.290,80.310,172,195,114
401921.760,5755792.380,80.330,178,202,119
401921.710,5755792.470,80.320,189,210,134
401921.930,5755792.250,80.260,123,154,85
401921.880,5755792.330,80.270,144,173,97
401921.840,5755792.420,80.280,138,172,91
401921.780,5755792.510,80.270,141,169,96
401922.030,5755792.290,80.250,80,113,49
401921.970,5755792.380,80.240,101,134,66
401921.920,5755792.470,80.250,108,139,70
401921.880,5755792.560,80.260,128,154,90
401922.070,5755792.430,80.240,101,133,68
401922.010,5755792.520,80.220,116,148,78
401921.950,5755792.600,80.200,160,189,116
401922.100,5755792.560,80.190,98,129,66
401922.030,5755792.650,80.150,145,173,103
401922.100,5755792.690,80.090,121,148,88
401922.150,5755792.740,80.010,131,159,102
401922.120,5755792.830,80.030,112,136,78
401922.190,5755792.870,79.980,104,125,68
401922.280,5755792.920,79.950,111,134,73
401922.350,5755792.970,79.890,136,163,95
401922.440,5755793.010,79.870,164,190,120
401922.530,5755793.060,79.850,163,187,123
401922.620,5755793.110,79.820,174,200,131
401922.690,5755793.240,79.860,146,172,99
401932.270,5755800.150,81.290,224,233,223
401932.250,5755800.210,81.360,219,234,218
401932.320,5755800.250,81.330,233,242,230
401932.830,5755800.650,81.330,220,230,220
401932.790,5755800.720,81.350,220,245,227
401932.900,5755800.680,81.350,224,236,227
401932.860,5755800.750,81.350,222,235,219
401932.990,5755800.690,81.430,193,214,206
401935.290,5755802.450,81.400,141,152,158
401935.250,5755802.520,81.390,102,122,135
401935.370,5755802.460,81.480,187,192,193
401935.310,5755802.560,81.360,110,127,138
401935.290,5755802.600,81.460,97,123,129
401935.370,5755802.600,81.320,119,134,143
401935.350,5755802.630,81.460,92,115,123
401935.310,5755802.700,81.450,87,117,114
401935.290,5755802.750,81.530,124,156,145
401935.380,5755802.730,81.180,99,118,131
401935.370,5755802.750,81.360,91,117,124
401935.310,5755802.850,81.250,140,174,168
401935.260,5755802.940,81.170,231,241,231
401935.450,5755802.750,81.230,103,120,133
401935.440,5755802.770,81.380,98,119,131
401935.400,5755802.850,81.370,110,143,140
401935.340,5755802.950,81.240,203,219,207
401935.310,5755803.000,81.300,227,234,220
401935.530,5755802.750,81.300,114,127,137
401935.500,5755802.810,81.360,100,119,132
401935.460,5755802.890,81.330,104,132,137
401935.410,5755802.960,81.290,187,209,200
401935.390,5755803.010,81.390,236,241,229
401935.610,5755802.760,81.370,141,150,157
401935.570,5755802.830,81.380,101,119,133
401935.530,5755802.910,81.350,98,121,132
401935.490,5755802.970,81.360,151,182,178
401935.470,5755803.010,81.480,232,243,235
401935.630,5755802.860,81.360,104,120,133
401935.610,5755802.910,81.440,98,119,133
401935.570,5755802.980,81.430,127,158,158
401935.510,5755803.090,81.290,205,224,212
401935.650,5755802.990,81.520,100,129,135
401935.590,5755803.090,81.380,172,202,194
401935.700,5755803.040,81.170,99,119,132
401935.700,5755803.040,81.430,97,123,134
401935.660,5755803.100,81.460,138,171,165
401935.600,5755803.220,81.260,216,231,216
401935.770,5755803.060,81.160,109,126,138
401935.720,5755803.150,81.110,97,119,133
401935.730,5755803.130,81.450,106,137,141
401935.680,5755803.210,81.380,189,215,204
401919.830,5755790.670,81.390,139,160,111
401919.730,5755790.610,81.400,147,167,116
401919.630,5755790.560,81.420,156,180,123
401919.590,5755790.460,81.360,156,179,119
401919.530,5755790.370,81.310,154,172,114
401919.520,5755790.250,81.220,169,186,129
401919.140,5755789.990,81.220,218,226,184
401919.050,5755789.930,81.230,215,228,182
401918.950,5755789.860,81.230,214,223,183
401918.860,5755789.800,81.230,221,227,191
401918.790,5755789.720,81.210,213,221,181
401918.680,5755789.660,81.220,226,232,198
401918.620,5755789.570,81.190,234,236,213
401918.520,5755789.510,81.190,233,236,209
401918.450,5755789.430,81.170,233,235,208
401918.390,5755789.340,81.120,244,242,226
401917.590,5755788.720,81.080,234,231,219
401917.390,5755788.600,81.100,230,227,216
401917.310,5755788.520,81.090,233,229,218
401917.200,5755788.470,81.110,236,232,221
401919.430,5755790.720,81.530,154,173,114
401919.390,5755790.630,81.480,170,186,120
401919.390,5755790.500,81.360,172,184,125
401919.360,5755790.400,81.290,164,180,121
401919.350,5755790.280,81.190,159,178,118
401919.340,5755790.160,81.090,163,178,121
401919.300,5755790.060,81.030,185,198,137
401919.100,5755790.060,81.160,202,213,161
401918.980,5755790.010,81.190,198,214,158
401918.890,5755789.950,81.190,201,213,156
401918.800,5755789.880,81.190,198,209,154
401918.700,5755789.820,81.200,190,204,145
401918.600,5755789.760,81.210,203,214,155
401918.510,5755789.690,81.200,216,223,177
401918.420,5755789.620,81.200,210,220,170
401918.330,5755789.550,81.190,217,222,178
401918.260,5755789.470,81.160,234,232,205
401918.180,5755789.390,81.150,237,233,214
401918.140,5755789.290,81.090,245,242,229
401918.080,5755789.210,81.050,240,238,226
401917.990,5755789.130,81.040,240,238,226
401917.900,5755789.070,81.030,243,240,227
401917.820,5755788.990,81.020,243,241,228
401917.730,5755788.920,81.010,242,241,230
401917.620,5755788.870,81.040,241,239,227
401917.530,5755788.800,81.040,238,231,214
401917.420,5755788.750,81.060,229,223,200
401917.260,5755788.730,81.150,224,220,196
401917.180,5755788.650,81.120,232,225,204
401917.120,5755788.560,81.090,238,230,211
401917.080,5755788.460,81.020,245,242,226
401916.980,5755788.400,81.030,240,239,226
401916.910,5755788.320,81.000,234,229,215
401916.790,5755788.270,81.030,237,233,218
401916.710,5755788.190,81.020,240,237,219
401916.640,5755788.110,80.990,231,229,200
401916.550,5755788.040,80.980,227,228,189
401916.460,5755787.970,80.980,217,213,181
401916.350,5755787.920,81.000,221,209,183
401916.270,5755787.840,80.980,216,205,180
401916.160,5755787.780,81.000,205,203,172
401916.080,5755787.710,80.990,193,201,156
401915.960,5755787.670,81.030,168,187,134
401919.190,5755790.550,81.370,173,187,124
401919.130,5755790.460,81.340,170,186,122
401919.160,5755790.320,81.190,166,180,115
401919.080,5755790.250,81.170,183,198,129
401918.990,5755790.180,81.170,190,206,140
401918.820,5755790.170,81.270,181,198,135
401918.710,5755790.110,81.280,177,196,131
401918.610,5755790.050,81.300,175,192,125
401918.600,5755789.930,81.190,168,185,116
401918.430,5755789.910,81.290,179,192,124
401918.370,5755789.820,81.250,192,206,145
401918.290,5755789.750,81.240,193,208,149
401918.230,5755789.670,81.200,200,211,160
401918.160,5755789.580,81.170,210,214,172
401918.110,5755789.490,81.120,228,227,190
401918.050,5755789.400,81.070,239,234,210
401917.990,5755789.310,81.030,236,230,208
401917.920,5755789.230,81.010,236,230,207
401917.820,5755789.170,81.020,234,230,201
401917.720,5755789.100,81.020,236,234,206
401917.630,5755789.030,81.020,241,244,214
401917.520,5755788.980,81.040,238,241,210
401917.410,5755788.930,81.070,232,233,199
401917.290,5755788.880,81.100,204,210,168
401917.200,5755788.820,81.100,186,195,148
401917.120,5755788.740,81.090,219,220,178
401917.050,5755788.660,81.060,231,227,191
401917.000,5755788.560,80.990,228,228,196
401916.920,5755788.480,80.980,231,232,204
401916.830,5755788.410,80.980,232,230,200
401916.730,5755788.350,80.990,237,233,202
401916.640,5755788.280,80.980,229,228,194
401916.560,5755788.210,80.970,217,221,173
401916.450,5755788.150,80.990,215,222,161
401916.350,5755788.090,80.990,218,220,168
401916.260,5755788.020,80.990,214,211,171
401916.160,5755787.960,81.000,199,201,162
401916.050,5755787.920,81.030,177,187,140
401915.950,5755787.850,81.040,164,181,126
401915.790,5755787.850,81.140,130,153,100
401918.960,5755790.370,81.210,189,207,132
401918.060,5755789.690,81.170,190,202,146
401918.030,5755789.590,81.100,214,217,164
401917.980,5755789.490,81.040,229,226,183
401917.920,5755789.400,81.000,233,232,184
401917.830,5755789.330,80.990,229,232,178
401917.730,5755789.270,81.010,224,229,175
401917.630,5755789.210,81.020,215,222,170
401917.530,5755789.150,81.030,218,229,170
401917.430,5755789.090,81.040,219,230,169
401917.320,5755789.040,81.060,201,216,158
401917.190,5755788.990,81.100,180,199,137
401917.080,5755788.940,81.130,182,200,135
401917.000,5755788.870,81.110,210,222,160
401916.940,5755788.780,81.080,210,221,162
401916.890,5755788.680,81.020,190,204,147
401916.810,5755788.600,81.000,202,218,160
401916.740,5755788.520,80.970,215,227,165
401916.630,5755788.470,80.990,222,231,168
401916.540,5755788.400,80.990,210,220,159
401916.440,5755788.330,80.990,196,207,147
401916.330,5755788.280,81.020,197,206,143
401916.230,5755788.230,81.030,199,208,147
401916.160,5755788.140,81.000,198,210,152
401916.060,5755788.080,81.010,179,196,140
401915.940,5755788.040,81.050,172,192,129
401923.260,5755793.120,79.770,139,169,90
401923.700,5755793.430,79.580,151,179,100
401923.560,5755793.380,79.630,145,172,92
401923.440,5755793.320,79.660,143,175,98
401923.300,5755793.270,79.700,148,181,103
401923.750,5755793.690,79.620,170,201,128
401923.690,5755793.610,79.590,140,169,96
401923.560,5755793.550,79.620,125,156,81
401923.510,5755793.460,79.570,135,163,87
401923.380,5755793.410,79.610,121,149,80
401923.610,5755793.810,79.660,175,205,129
401923.590,5755793.710,79.570,146,176,106
401923.530,5755793.620,79.540,118,148,79
401923.490,5755793.530,79.480,110,137,66
401923.400,5755793.460,79.470,114,138,71
401923.520,5755793.910,79.640,183,213,130
401923.520,5755793.800,79.540,151,180,107
401923.480,5755793.700,79.470,139,171,99
401923.450,5755793.610,79.400,119,149,75
401923.350,5755793.540,79.400,137,161,89
401923.240,5755793.480,79.420,135,159,92
401923.460,5755793.770,79.380,157,189,111
401923.420,5755793.680,79.320,124,151,78
401923.340,5755793.600,79.300,149,171,98
401923.180,5755793.560,79.370,137,160,89
401930.840,5755799.250,78.150,224,228,171
401930.730,5755799.180,78.150,207,210,156
401930.810,5755799.080,77.990,194,201,143
401930.810,5755798.980,77.900,169,165,117
401930.740,5755798.900,77.870,148,133,95
401929.310,5755797.810,77.800,152,130,76
401929.210,5755797.740,77.800,150,131,76
401929.120,5755797.670,77.800,142,134,67
401929.020,5755797.590,77.790,158,163,72
401928.930,5755797.520,77.790,145,138,69
401928.840,5755797.440,77.770,141,133,68
401928.780,5755797.360,77.740,146,140,67
401928.690,5755797.290,77.730,131,128,58
401928.560,5755797.220,77.760,142,131,66
401928.460,5755797.150,77.750,143,129,68
401928.400,5755797.070,77.710,144,126,69
401928.270,5755797.010,77.740,151,131,73
401928.140,5755796.940,77.780,137,122,68
401928.000,5755796.880,77.810,126,117,64
401927.900,5755796.810,77.810,137,136,70
401927.820,5755796.730,77.790,137,145,69
401927.750,5755796.650,77.760,142,138,71
401927.680,5755796.570,77.730,152,135,77
401927.600,5755796.490,77.710,138,120,70
401927.520,5755796.410,77.690,111,99,54
401927.430,5755796.340,77.680,82,75,42
401927.330,5755796.270,77.680,69,63,38
401927.200,5755796.210,77.710,66,59,34
401927.080,5755796.140,77.730,69,62,36
401927.040,5755796.050,77.670,76,66,37
401930.660,5755799.370,78.200,209,219,154
401930.580,5755799.290,78.180,195,200,141
401930.550,5755799.210,78.120,188,187,129
401930.540,5755799.120,78.030,184,177,129
401930.560,5755799.020,77.930,168,151,102
401930.610,5755798.910,77.780,177,155,97
401930.520,5755798.840,77.770,162,141,83
401930.450,5755798.760,77.750,155,134,79
401930.360,5755798.690,77.740,147,127,77
401930.260,5755798.620,77.740,149,129,79
401930.210,5755798.530,77.690,149,129,77
401930.180,5755798.440,77.630,151,131,76
401930.100,5755798.370,77.600,152,132,74
401929.860,5755798.330,77.740,154,133,73
401929.750,5755798.260,77.740,151,130,72
401929.650,5755798.190,77.750,150,129,72
401929.550,5755798.120,77.750,152,131,73
401929.410,5755798.050,77.790,153,131,74
401929.330,5755797.980,77.760,153,131,74
401929.240,5755797.900,77.750,153,132,73
401929.130,5755797.830,77.770,149,130,74
401929.030,5755797.760,77.770,122,112,58
401928.940,5755797.690,77.760,133,127,61
401928.830,5755797.620,77.760,150,141,72
401928.720,5755797.550,77.780,145,138,67
401928.630,5755797.480,77.770,138,131,60
401928.500,5755797.410,77.790,147,140,70
401928.460,5755797.320,77.740,144,135,66
401928.330,5755797.260,77.770,145,135,67
401928.230,5755797.190,77.760,141,126,67
401928.090,5755797.130,77.800,157,141,77
401927.980,5755797.060,77.820,157,146,82
401927.860,5755796.990,77.840,124,116,61
401927.770,5755796.920,77.830,125,119,59
401927.690,5755796.840,77.810,118,112,53
401927.600,5755796.770,77.800,127,120,59
401927.530,5755796.690,77.760,153,150,80
401927.460,5755796.610,77.740,132,122,64
401927.390,5755796.530,77.710,113,101,54
401927.310,5755796.450,77.690,77,72,44
401927.150,5755796.390,77.740,56,53,33
401927.060,5755796.320,77.730,49,46,29
401927.160,5755796.180,77.530,50,47,31
401930.430,5755798.940,77.750,169,149,91
401930.310,5755798.870,77.770,158,138,83
401930.240,5755798.790,77.740,154,134,81
401930.160,5755798.710,77.720,158,137,82
401930.090,5755798.640,77.690,159,138,82
401929.870,5755798.590,77.800,155,135,77
401929.790,5755798.520,77.790,157,137,77
401929.660,5755798.450,77.820,153,135,72
401929.540,5755798.380,77.840,150,132,70
401929.460,5755798.310,77.820,155,138,73
401929.410,5755798.220,77.770,163,145,78
401929.250,5755798.170,77.830,156,135,76
401929.220,5755798.080,77.760,154,132,74
401929.070,5755798.020,77.810,156,134,77
401928.920,5755797.960,77.860,152,133,76
401928.820,5755797.890,77.860,140,125,71
401928.760,5755797.810,77.820,146,134,76
401928.700,5755797.730,77.780,171,163,87
401928.600,5755797.660,77.780,174,169,85
401928.510,5755797.580,77.770,153,147,70
401928.380,5755797.520,77.800,158,151,73
401928.290,5755797.440,77.790,146,141,62
401928.170,5755797.380,77.810,160,154,72
401928.050,5755797.310,77.830,147,135,69
401927.960,5755797.240,77.830,167,156,82
401927.860,5755797.170,77.830,164,158,82
401927.760,5755797.090,77.820,141,134,68
401927.670,5755797.020,77.810,137,130,62
401927.350,5755796.710,77.730,107,107,53
401927.220,5755796.650,77.760,104,92,50
401927.130,5755796.570,77.760,76,70,41
401927.050,5755796.500,77.740,57,53,32
401926.960,5755796.420,77.720,53,50,32
401926.790,5755796.370,77.800,52,50,33
401930.160,5755798.880,77.710,163,141,82
401930.090,5755798.810,77.670,164,143,83
401929.990,5755798.730,77.680,163,143,85
401929.840,5755798.670,77.730,160,140,81
401929.690,5755798.610,77.780,152,135,78
401929.440,5755798.480,77.820,138,127,66
401929.360,5755798.410,77.800,136,122,66
401929.260,5755798.330,77.800,153,136,73
401929.070,5755798.190,77.800,159,138,80
401929.000,5755798.110,77.770,159,142,82
401930.000,5755798.900,77.650,161,141,82
401935.420,5755803.010,81.620,118,193,131
401935.280,5755802.810,81.800,103,180,125
401935.370,5755802.990,81.520,139,198,146
401935.280,5755802.800,81.660,105,184,125
401935.340,5755802.970,81.410,172,208,174
401935.290,5755802.940,81.310,210,224,205
401930.750,5755799.370,77.830,230,228,172
401930.780,5755799.240,77.860,221,219,163
401930.670,5755799.320,77.760,223,221,173
401930.700,5755799.200,77.790,212,203,161
401930.750,5755799.080,77.800,197,184,142
401930.790,5755798.960,77.820,189,173,130
401930.620,5755799.150,77.710,167,149,110
401930.670,5755799.040,77.730,172,150,104
401930.710,5755798.920,77.750,182,158,107
401930.600,5755799.000,77.630,185,160,105
401930.580,5755798.850,77.730,180,155,99
401930.290,5755798.990,77.760,177,155,97
401930.390,5755798.890,77.720,174,152,97
401930.190,5755798.930,77.710,168,147,89
401930.270,5755798.830,77.690,165,143,87
401930.130,5755798.900,77.620,165,144,85
401930.180,5755798.780,77.630,166,144,86
401929.840,5755798.750,77.800,164,142,84
401929.880,5755798.640,77.820,165,143,84
401929.670,5755798.530,77.900,162,140,82
401929.580,5755798.480,77.850,155,138,81
401929.540,5755798.460,77.720,154,141,78
401929.580,5755798.340,77.750,157,142,77
401929.450,5755798.410,77.650,152,136,73
401929.510,5755798.300,77.660,168,154,85
401929.230,5755798.300,77.760,158,139,78
401929.310,5755798.200,77.740,165,146,82
401929.190,5755798.140,77.710,160,138,80
401929.280,5755798.040,77.660,158,137,79
401928.970,5755798.030,77.810,159,140,82
401929.100,5755797.950,77.730,158,137,80
401929.130,5755797.830,77.760,158,137,79
401928.850,5755797.970,77.780,153,138,80
401928.930,5755797.870,77.760,154,136,81
401929.030,5755797.780,77.710,153,136,76
401928.710,5755797.890,77.790,154,141,80
401928.800,5755797.800,77.750,154,141,82
401928.840,5755797.680,77.780,157,144,80
401928.650,5755797.730,77.770,165,157,87
401928.720,5755797.620,77.760,170,162,88
401928.750,5755797.500,77.790,153,144,74
401928.790,5755797.390,77.820,153,143,74
401928.520,5755797.660,77.750,166,159,87
401928.590,5755797.550,77.750,168,159,88
401928.610,5755797.430,77.790,153,144,75
401928.390,5755797.590,77.750,173,170,94
401928.460,5755797.490,77.740,165,157,88
401928.510,5755797.380,77.750,164,155,87
401928.240,5755797.520,77.760,186,188,103
401928.320,5755797.420,77.750,159,153,78
401928.140,5755797.330,77.800,172,165,90
401928.010,5755797.260,77.790,173,164,92
401928.080,5755797.160,77.780,157,144,83
401927.870,5755797.190,77.800,176,169,94
401927.930,5755797.090,77.790,156,146,82
401927.720,5755797.120,77.820,164,155,86
401927.780,5755797.010,77.820,147,136,72
401923.610,5755793.980,79.520,179,213,118
401923.570,5755793.950,79.400,191,225,122
401923.150,5755793.040,79.810,145,168,101
401923.120,5755793.010,79.670,160,184,116
401922.790,5755792.750,79.900,156,177,106
401922.560,5755792.770,79.990,128,151,88
401922.620,5755792.680,79.980,126,147,89
401922.410,5755792.810,79.970,149,171,99
401922.440,5755792.710,80.010,103,126,66
401922.390,5755792.580,80.170,92,119,67
401922.260,5755792.630,80.110,98,122,65
401922.180,5755792.490,80.310,100,125,66
401922.210,5755792.390,80.360,174,197,119
401922.110,5755792.560,80.170,134,158,92
401922.050,5755792.430,80.340,157,180,100
401922.030,5755792.310,80.450,178,202,113
401922.100,5755792.220,80.430,175,203,117
401921.970,5755792.500,80.220,141,166,94
401921.880,5755792.360,80.430,150,177,95
401921.910,5755792.260,80.460,180,206,115
401921.970,5755792.170,80.450,179,210,118
401921.780,5755792.310,80.410,169,196,110
401921.810,5755792.200,80.450,191,222,134
401921.880,5755792.120,80.420,189,221,128
401921.770,5755792.290,80.250,176,206,108
401921.820,5755792.190,80.250,168,200,106
401921.820,5755792.080,80.330,184,216,122
401921.810,5755791.970,80.430,157,188,101
401921.630,5755792.220,80.310,163,191,100
401921.670,5755792.120,80.310,173,206,112
401921.670,5755792.010,80.390,177,209,116
401921.710,5755791.920,80.410,168,198,107
401921.450,5755792.140,80.410,157,180,105
401921.530,5755792.060,80.360,180,205,120
401921.590,5755791.970,80.350,162,189,96
401921.610,5755791.870,80.390,156,182,91
401921.300,5755792.070,80.480,167,187,119
401921.360,5755791.980,80.460,179,200,128
401921.410,5755791.890,80.450,160,183,103
401921.190,5755792.020,80.480,178,198,131
401921.240,5755791.930,80.470,161,181,117
401921.030,5755791.950,80.560,157,176,119
401921.060,5755791.850,80.590,152,170,117
401920.800,5755791.750,80.840,175,192,142
401920.540,5755791.540,81.180,153,173,117
401920.530,5755791.430,81.280,190,204,146
401920.620,5755791.360,81.210,197,206,144
401920.660,5755791.260,81.220,184,195,129
401920.710,5755791.170,81.230,175,188,127
401920.390,5755791.370,81.340,180,197,135
401920.430,5755791.280,81.340,184,195,129
401920.530,5755791.200,81.260,194,207,136
401920.630,5755791.130,81.170,191,204,137
401920.240,5755791.300,81.410,161,179,112
401920.330,5755791.230,81.340,176,191,119
401920.470,5755791.170,81.180,194,208,136
401920.550,5755791.090,81.130,191,205,142
401920.270,5755791.190,81.260,160,178,107
401920.370,5755791.120,81.180,181,193,126
401920.410,5755791.030,81.180,185,201,132
401920.470,5755790.940,81.160,190,210,134
401920.210,5755791.150,81.190,170,190,119
401920.300,5755791.080,81.100,163,178,111
401920.350,5755790.990,81.110,173,191,116
401920.410,5755790.900,81.080,178,196,122
401920.100,5755791.100,81.180,173,190,123
401920.130,5755791.010,81.220,148,165,99
401920.190,5755790.920,81.190,165,183,113
401920.210,5755790.820,81.250,184,199,134
401920.040,5755790.960,81.190,159,178,114
401920.060,5755790.860,81.230,178,197,136
401920.080,5755790.770,81.290,184,200,141
401919.890,5755790.900,81.280,154,173,112
401919.960,5755790.820,81.220,153,174,120
401919.960,5755790.710,81.310,162,183,130
401920.040,5755790.630,81.250,151,170,115
401919.710,5755790.930,81.310,168,188,125
401919.760,5755790.840,81.310,160,179,124
401919.830,5755790.760,81.280,159,180,125
401919.860,5755790.660,81.300,153,174,120
401919.940,5755790.580,81.250,152,172,120
401919.620,5755790.880,81.300,162,182,122
401919.680,5755790.790,81.280,156,176,121
401919.720,5755790.710,81.280,162,181,125
401919.780,5755790.620,81.270,162,182,120
401919.840,5755790.530,81.230,160,182,123
401919.540,5755790.840,81.240,173,194,129
401919.610,5755790.760,81.200,168,186,129
401919.680,5755790.670,81.170,169,185,126
401919.720,5755790.580,81.190,173,189,124
401919.770,5755790.490,81.180,172,195,129
401919.550,5755790.720,81.130,189,206,139
401919.600,5755790.630,81.120,188,204,137
401919.660,5755790.540,81.110,192,204,140
401919.720,5755790.460,81.080,179,196,132
401919.420,5755790.660,81.160,200,217,147
401919.510,5755790.580,81.100,203,217,150
401919.600,5755790.510,81.030,200,210,151
401919.650,5755790.420,81.010,181,196,143
401919.630,5755790.310,81.140,172,189,136
401919.260,5755790.590,81.270,196,215,143
401919.330,5755790.510,81.230,190,206,139
401919.380,5755790.430,81.230,190,201,142
401919.470,5755790.350,81.150,172,184,131
401919.530,5755790.260,81.130,167,182,129
401919.220,5755790.460,81.240,201,218,144
401919.290,5755790.380,81.200,186,203,138
401919.370,5755790.300,81.140,177,193,135
401919.450,5755790.220,81.080,167,183,129
401919.050,5755790.390,81.370,189,208,137
401919.160,5755790.320,81.260,186,204,139
401919.250,5755790.250,81.170,179,196,138
401919.350,5755790.170,81.080,169,185,129
401918.980,5755790.350,81.310,191,209,145
401919.070,5755790.280,81.230,191,208,147
401919.160,5755790.200,81.160,192,207,145
401919.230,5755790.120,81.100,185,202,139
401919.290,5755790.030,81.090,180,195,134
401918.870,5755790.300,81.320,194,212,143
401918.960,5755790.230,81.240,181,198,132
401919.040,5755790.150,81.180,194,206,145
401919.120,5755790.070,81.120,187,200,142
401919.180,5755789.980,81.090,187,202,148
401918.770,5755790.250,81.310,193,213,139
401918.890,5755790.190,81.180,190,209,140
401918.990,5755790.110,81.080,202,217,151
401919.020,5755790.020,81.120,200,211,152
401919.090,5755789.940,81.070,198,211,159
401918.790,5755790.140,81.180,180,200,130
401918.890,5755790.060,81.080,198,211,144
401918.910,5755789.970,81.120,207,212,152
401919.000,5755789.890,81.040,195,201,151
401918.690,5755790.090,81.170,182,202,127
401918.770,5755790.010,81.120,190,204,135
401918.810,5755789.920,81.120,201,207,148
401918.850,5755789.830,81.140,200,206,155
401918.920,5755789.750,81.090,224,229,187
401918.620,5755790.050,81.110,192,207,136
