//X,Y,Z,R,G,B
401914.350,5755874.200,79.890,133,165,89
401914.270,5755874.250,79.830,120,148,76
401914.200,5755874.310,79.780,140,164,89
401914.130,5755874.390,79.770,165,191,109
401914.070,5755874.480,79.770,169,195,113
401914.010,5755874.560,79.750,151,181,94
401913.950,5755874.640,79.750,149,178,87
401914.330,5755874.260,79.720,114,142,73
401914.260,5755874.310,79.670,144,170,104
401914.190,5755874.380,79.640,145,172,106
401914.170,5755874.550,79.760,145,173,99
401914.100,5755874.630,79.730,158,188,106
401914.030,5755874.710,79.720,155,189,98
401913.970,5755874.790,79.710,153,186,92
401914.320,5755874.320,79.550,158,183,114
401914.320,5755874.550,79.760,149,172,107
401914.250,5755874.610,79.710,140,162,97
401914.180,5755874.690,79.690,165,190,121
401914.120,5755874.770,79.690,146,177,100
401914.050,5755874.850,79.670,154,183,100
401913.980,5755874.920,79.650,158,189,100
401914.420,5755874.640,79.760,133,157,91
401914.340,5755874.690,79.710,148,169,100
401914.260,5755874.750,79.650,166,191,121
401914.180,5755874.780,79.570,134,167,91
401914.120,5755874.870,79.570,141,169,87
401914.050,5755874.950,79.560,154,185,101
401914.420,5755874.740,79.660,123,147,72
401914.340,5755874.790,79.590,130,157,82
401914.240,5755874.800,79.480,118,149,76
401914.180,5755874.890,79.470,121,147,72
401914.140,5755875.010,79.520,126,158,71
401914.070,5755875.100,79.510,133,167,69
401914.020,5755875.200,79.540,145,174,80
401914.420,5755874.850,79.550,121,150,73
401914.360,5755874.940,79.560,127,156,79
401914.300,5755875.010,79.530,125,153,72
401914.220,5755875.080,79.500,131,158,76
401914.140,5755875.120,79.420,128,160,67
401914.070,5755875.190,79.390,133,162,75
401914.450,5755875.000,79.520,115,144,68
401914.380,5755875.070,79.480,146,175,87
401914.270,5755875.070,79.350,145,173,91
401914.230,5755875.190,79.400,135,165,75
401914.160,5755875.260,79.360,132,162,70
401914.080,5755875.320,79.310,130,159,75
401914.450,5755875.110,79.420,138,169,71
401914.350,5755875.110,79.280,146,178,79
401914.280,5755875.190,79.270,144,179,76
401914.230,5755875.290,79.280,156,189,80
401914.160,5755875.370,79.260,178,204,103
401914.120,5755875.500,79.320,182,213,88
401914.430,5755875.160,79.230,158,193,76
401914.380,5755875.280,79.270,160,198,79
401914.300,5755875.330,79.200,154,188,78
401914.270,5755875.490,79.310,171,197,95
401914.200,5755875.550,79.280,179,208,87
401914.130,5755875.630,79.250,183,214,70
401914.510,5755875.430,79.370,167,203,80
401914.440,5755875.490,79.330,163,195,94
401914.350,5755875.530,79.250,157,183,90
401914.290,5755875.620,79.240,164,189,87
401914.220,5755875.690,79.210,175,203,82
401914.150,5755875.760,79.180,164,192,61
401914.530,5755875.570,79.320,170,201,89
401914.420,5755875.560,79.160,182,207,103
401914.360,5755875.650,79.160,173,199,85
401914.290,5755875.720,79.140,169,193,92
401914.210,5755875.780,79.080,183,206,101
401914.150,5755875.870,79.080,169,192,85
401914.550,5755875.720,79.280,180,212,97
401914.470,5755875.770,79.220,165,196,73
401914.340,5755875.720,78.990,173,197,90
401914.260,5755875.770,78.930,195,218,111
401914.220,5755875.900,79.000,174,200,98
401914.160,5755876.000,79.000,163,187,94
401914.550,5755875.820,79.160,167,198,78
401914.440,5755875.810,79.000,189,218,101
401914.360,5755875.850,78.930,192,220,104
401914.300,5755875.950,78.940,182,210,96
401914.240,5755876.040,78.950,162,187,89
401914.170,5755876.120,78.920,145,175,63
401914.550,5755875.910,79.040,188,220,84
401914.460,5755875.960,78.960,182,215,79
401914.360,5755875.970,78.830,181,211,81
401914.310,5755876.070,78.850,180,206,91
401914.240,5755876.150,78.840,163,192,73
401914.180,5755876.240,78.830,143,170,64
401914.560,5755876.040,78.970,190,224,70
401914.500,5755876.140,78.970,196,224,89
401914.400,5755876.150,78.840,180,208,89
401914.320,5755876.210,78.790,171,198,91
401914.250,5755876.280,78.760,166,189,92
401914.670,5755876.150,79.000,182,213,75
401914.600,5755876.230,78.980,187,215,82
401914.520,5755876.290,78.930,183,210,96
401914.400,5755876.240,78.710,169,195,95
401914.330,5755876.320,78.690,183,207,108
401914.240,5755876.370,78.620,172,197,88
401914.610,5755876.340,78.880,184,206,97
401914.490,5755876.320,78.700,180,201,101
401914.410,5755876.370,78.640,199,220,104
401914.330,5755876.430,78.580,201,225,103
401914.680,5755876.370,78.800,201,220,105
401914.580,5755876.390,78.680,204,223,121
401914.490,5755876.430,78.600,206,227,106
401914.420,5755876.500,78.560,213,235,107
401914.690,5755876.510,78.740,211,232,118
401914.590,5755876.520,78.610,210,231,103
401914.740,5755876.700,78.770,219,241,109
401916.250,5755889.020,79.680,62,102,68
401916.430,5755888.910,79.620,53,88,63
401916.390,5755889.000,79.690,55,92,63
401916.270,5755889.150,79.620,64,106,71
401916.260,5755889.270,79.810,69,110,72
401916.560,5755888.880,79.610,59,95,72
401916.400,5755889.120,79.610,57,95,65
401916.370,5755889.220,79.680,62,102,70
401916.290,5755889.290,79.610,68,108,71
401916.230,5755889.360,79.570,75,113,73
401916.440,5755889.270,79.650,59,97,67
401916.380,5755889.340,79.610,62,100,68
401916.300,5755889.410,79.540,65,102,63
401916.250,5755889.490,79.560,85,122,75
401916.590,5755889.270,79.710,66,100,73
401916.520,5755889.320,79.620,58,94,65
401916.440,5755889.380,79.530,54,90,60
401916.390,5755889.470,79.540,62,98,61
401916.350,5755889.560,79.610,80,117,72
401916.670,5755889.320,79.680,56,91,61
401916.610,5755889.390,79.640,55,90,60
401916.540,5755889.460,79.610,44,79,49
401916.480,5755889.540,79.590,51,85,53
401916.450,5755889.640,79.690,68,102,62
401916.670,5755889.430,79.550,70,107,73
401916.610,5755889.500,79.540,50,85,53
401916.550,5755889.580,79.530,53,86,52
401916.520,5755889.680,79.610,76,110,65
401916.460,5755889.750,79.580,81,117,71
401916.680,5755889.550,79.480,59,92,54
401916.630,5755889.640,79.520,67,98,58
401916.580,5755889.720,79.510,95,128,73
401916.530,5755889.810,79.560,84,119,70
401916.490,5755889.890,79.580,83,118,71
401916.430,5755889.970,79.580,88,122,66
401916.360,5755890.040,79.490,133,163,98
401916.320,5755890.140,79.590,137,167,96
401916.740,5755889.720,79.610,73,102,60
401916.680,5755889.800,79.610,92,122,71
401916.620,5755889.870,79.580,104,132,83
401916.570,5755889.950,79.590,119,145,95
401916.510,5755890.030,79.580,90,122,65
401916.470,5755890.120,79.600,103,134,67
401916.410,5755890.200,79.610,137,163,93
401916.360,5755890.280,79.610,148,171,98
401916.760,5755889.850,79.590,83,110,61
401916.700,5755889.930,79.580,102,130,75
401916.660,5755890.020,79.610,120,147,86
401916.590,5755890.080,79.560,111,141,76
401916.560,5755890.180,79.640,136,166,92
401916.510,5755890.260,79.650,162,190,108
401916.460,5755890.350,79.690,189,216,133
401916.420,5755890.440,79.740,196,221,138
401916.370,5755890.520,79.750,204,229,142
401916.780,5755889.980,79.570,123,149,93
401916.750,5755890.080,79.630,124,152,86
401916.690,5755890.150,79.610,135,165,92
401916.650,5755890.240,79.670,168,197,114
401916.610,5755890.330,79.710,185,214,124
401916.560,5755890.420,79.760,193,223,133
401916.510,5755890.500,79.750,196,222,136
401916.450,5755890.580,79.750,191,217,131
401916.410,5755890.660,79.770,180,206,120
401916.780,5755890.220,79.650,156,184,104
401916.730,5755890.300,79.660,191,218,131
401916.680,5755890.380,79.670,188,219,128
401916.610,5755890.450,79.630,171,203,115
401916.580,5755890.550,79.690,189,216,133
401916.550,5755890.640,79.780,198,221,141
401916.490,5755890.720,79.790,197,221,141
401916.450,5755890.810,79.830,181,206,124
401916.820,5755890.360,79.680,174,201,111
401916.760,5755890.440,79.670,162,192,105
401916.690,5755890.500,79.580,145,177,92
401916.650,5755890.590,79.640,166,193,112
401916.610,5755890.690,79.720,184,207,126
401916.580,5755890.780,79.790,196,220,138
401916.540,5755890.870,79.840,170,193,116
401916.480,5755890.950,79.820,148,175,96
401916.850,5755890.500,79.690,155,184,98
401916.760,5755890.560,79.570,157,186,104
401916.730,5755890.650,79.660,157,184,103
401916.690,5755890.740,79.720,178,202,119
401916.650,5755890.830,79.770,202,224,141
401916.610,5755890.920,79.820,193,214,134
401916.550,5755891.000,79.780,183,208,124
401916.490,5755891.070,79.780,184,214,127
401916.860,5755890.620,79.620,142,172,87
401916.810,5755890.710,79.640,152,182,92
401916.760,5755890.790,79.670,172,199,111
401916.720,5755890.880,79.710,206,227,142
401916.680,5755890.970,79.780,206,224,135
401916.630,5755891.050,79.790,191,214,116
401916.580,5755891.130,79.800,198,222,135
401916.530,5755891.210,79.800,201,224,139
401916.890,5755890.760,79.620,156,187,96
401916.830,5755890.830,79.600,165,193,109
401916.800,5755890.930,79.690,189,212,130
401916.770,5755891.030,79.800,208,227,135
401916.720,5755891.110,79.810,197,218,122
401916.660,5755891.190,79.790,204,225,138
401916.610,5755891.270,79.810,212,232,149
401916.540,5755891.340,79.740,200,220,136
401916.900,5755890.880,79.570,155,184,102
401916.860,5755890.970,79.610,151,177,101
401916.820,5755891.060,79.670,167,191,104
401916.780,5755891.150,79.740,175,202,106
401916.730,5755891.230,79.720,195,219,128
401916.680,5755891.310,79.730,195,215,132
401916.620,5755891.390,79.710,193,214,133
401916.560,5755891.460,79.680,178,204,114
401916.930,5755891.140,79.780,146,172,88
401916.860,5755891.210,79.720,172,199,106
401916.810,5755891.290,79.730,177,202,113
401916.760,5755891.370,79.760,178,198,121
401916.710,5755891.450,79.740,195,213,140
401916.640,5755891.510,79.670,191,213,126
401916.590,5755891.600,79.700,199,221,132
401916.550,5755891.690,79.750,201,223,138
401916.950,5755891.270,79.740,163,188,99
401916.890,5755891.340,79.740,176,199,113
401916.850,5755891.430,79.760,196,215,137
401916.790,5755891.510,79.760,190,211,129
401916.730,5755891.580,79.730,198,221,126
401916.670,5755891.650,79.680,207,229,135
401916.630,5755891.740,79.750,202,224,134
401916.580,5755891.820,79.750,194,215,128
401916.970,5755891.400,79.720,189,211,121
401916.940,5755891.490,79.830,196,217,128
401916.890,5755891.570,79.840,191,213,123
401916.830,5755891.640,79.790,202,222,134
401916.770,5755891.720,79.760,193,216,128
401916.720,5755891.800,79.780,179,204,111
401916.660,5755891.880,79.770,173,194,110
401917.010,5755891.540,79.750,181,207,109
401916.950,5755891.620,79.760,185,209,116
401916.890,5755891.690,79.730,190,209,125
401916.820,5755891.760,79.650,174,196,113
401916.790,5755891.850,79.710,175,201,111
401916.730,5755891.930,79.720,175,198,116
401916.680,5755892.000,79.730,156,176,109
401917.020,5755891.660,79.700,180,205,120
401916.960,5755891.740,79.680,172,191,117
401916.920,5755891.820,79.710,173,193,115
401916.870,5755891.900,79.740,187,211,124
401916.820,5755891.980,79.730,198,220,133
401916.770,5755892.060,79.730,199,217,140
401916.720,5755892.140,79.750,186,208,137
401917.050,5755891.790,79.680,154,177,103
401917.000,5755891.880,79.710,147,168,95
401916.950,5755891.960,79.750,172,193,114
401916.900,5755892.040,79.750,196,216,135
401916.850,5755892.110,79.730,220,235,159
401916.790,5755892.190,79.710,217,235,159
401916.740,5755892.270,79.750,199,221,142
401916.700,5755892.350,79.760,207,225,155
401917.060,5755892.030,79.830,203,223,148
401916.990,5755892.100,79.780,209,226,156
401916.940,5755892.180,79.800,216,232,157
401916.880,5755892.250,79.750,217,233,155
401916.840,5755892.340,79.820,220,236,159
401916.780,5755892.410,79.800,229,241,169
401916.720,5755892.490,79.760,230,242,176
401916.690,5755892.580,79.840,225,237,172
401917.090,5755892.160,79.860,226,237,171
401917.030,5755892.240,79.830,214,228,159
401916.940,5755892.290,79.670,227,240,172
401916.910,5755892.380,79.760,229,241,171
401916.850,5755892.460,79.740,222,236,160
401916.820,5755892.550,79.810,217,233,161
401916.770,5755892.630,79.860,216,229,165
401916.730,5755892.710,79.890,189,208,132
401917.130,5755892.300,79.920,228,238,176
401917.050,5755892.360,79.780,237,244,182
401917.000,5755892.440,79.810,226,236,166
401916.970,5755892.530,79.890,202,220,134
401916.920,5755892.610,79.900,193,213,130
401916.860,5755892.690,79.880,169,188,116
401916.810,5755892.770,79.890,153,175,97
401916.760,5755892.850,79.900,177,195,127
401917.120,5755892.410,79.760,237,243,176
401917.080,5755892.500,79.810,221,231,155
401917.060,5755892.590,79.930,186,202,112
401917.000,5755892.670,79.910,175,198,105
401916.940,5755892.740,79.860,166,191,107
401916.880,5755892.820,79.850,183,205,120
401916.830,5755892.890,79.860,204,221,140
401916.780,5755892.970,79.880,208,227,148
401917.160,5755892.550,79.780,223,235,157
401917.140,5755892.650,79.950,211,228,141
401917.080,5755892.720,79.920,209,228,141
401917.020,5755892.800,79.900,208,228,145
401916.980,5755892.880,79.910,217,235,150
401916.920,5755892.950,79.900,215,232,153
401916.870,5755893.030,79.900,228,240,177
401916.820,5755893.110,79.900,241,249,193
401916.770,5755893.190,79.920,237,244,186
401917.170,5755892.780,79.940,232,242,169
401917.110,5755892.850,79.910,233,244,170
401917.060,5755892.930,79.910,225,238,161
401917.000,5755893.010,79.910,220,233,162
401916.960,5755893.090,79.940,222,232,172
401916.910,5755893.160,79.940,219,228,171
401916.850,5755893.240,79.930,192,205,146
401916.790,5755893.320,79.900,183,199,139
401917.230,5755892.920,80.080,207,222,150
401917.180,5755893.000,80.080,190,205,136
401917.110,5755893.070,80.000,179,197,130
401917.050,5755893.150,80.000,153,176,103
401916.980,5755893.220,79.930,158,181,107
401916.930,5755893.290,79.930,153,173,107
401916.860,5755893.360,79.870,146,166,108
401917.200,5755893.130,80.050,139,165,89
401917.130,5755893.200,79.990,117,148,70
401917.060,5755893.270,79.930,113,147,67
401917.000,5755893.340,79.890,133,164,85
401916.940,5755893.410,79.840,141,164,97
401916.880,5755893.490,79.820,144,166,91
401917.260,5755893.170,79.990,128,159,76
401917.200,5755893.240,79.930,119,151,71
401917.110,5755893.300,79.800,115,150,64
401917.060,5755893.380,79.810,137,172,84
401917.010,5755893.460,79.790,127,155,77
401916.920,5755893.520,79.640,131,156,78
401916.880,5755893.610,79.710,165,191,99
401917.260,5755893.290,79.880,128,163,73
401917.200,5755893.360,79.840,132,168,72
401917.140,5755893.430,79.800,134,167,82
401917.080,5755893.510,79.750,129,159,78
401916.980,5755893.570,79.570,132,158,79
401916.950,5755893.650,79.660,158,184,104
401916.900,5755893.730,79.660,182,207,131
401916.870,5755893.820,79.780,172,196,113
401917.260,5755893.400,79.760,141,173,82
401917.190,5755893.470,79.660,122,149,73
401917.130,5755893.550,79.640,124,152,74
401916.940,5755893.870,79.740,180,203,118
401916.910,5755893.950,79.810,175,204,119
401917.310,5755893.440,79.610,133,159,75
401917.240,5755893.510,79.560,107,128,60
401917.190,5755893.590,79.540,121,146,67
401917.020,5755893.920,79.730,169,194,114
401916.980,5755894.000,79.790,156,184,104
401916.940,5755894.080,79.820,191,216,143
401917.300,5755893.550,79.450,145,167,83
401917.120,5755893.980,79.820,185,209,135
401917.080,5755894.060,79.870,175,200,126
401917.020,5755894.130,79.830,184,208,123
401916.980,5755894.210,79.870,196,219,128
401917.150,5755894.110,79.840,143,166,98
401917.090,5755894.180,79.800,139,164,87
401917.040,5755894.260,79.810,148,176,84
401917.010,5755894.340,79.890,151,182,83
401916.970,5755894.430,79.940,149,182,81
401917.210,5755894.150,79.750,127,154,85
401917.160,5755894.230,79.730,138,164,95
401917.110,5755894.300,79.740,147,177,95
401917.070,5755894.390,79.790,159,190,98
401917.030,5755894.470,79.850,170,203,103
401916.990,5755894.550,79.890,190,217,122
401917.330,5755894.120,79.670,171,200,119
401917.280,5755894.200,79.680,126,150,83
401917.220,5755894.270,79.680,115,139,78
401917.190,5755894.360,79.770,151,178,97
401917.150,5755894.440,79.790,175,204,112
401917.110,5755894.520,79.840,184,214,114
401917.060,5755894.600,79.870,191,217,121
401917.020,5755894.680,79.920,194,215,127
401917.390,5755894.160,79.600,144,169,92
401917.340,5755894.240,79.600,143,167,98
401917.290,5755894.320,79.650,149,180,101
401917.250,5755894.400,79.670,155,187,92
401917.210,5755894.480,79.740,172,203,100
401917.180,5755894.570,79.820,179,210,107
401917.140,5755894.650,79.870,183,210,116
401917.090,5755894.730,79.880,163,189,95
401917.040,5755894.800,79.880,179,205,116
401917.410,5755894.290,79.580,182,215,122
401917.370,5755894.370,79.610,175,209,101
401917.320,5755894.450,79.620,163,196,89
401917.270,5755894.530,79.660,158,191,87
401917.230,5755894.610,79.710,169,200,99
401917.170,5755894.680,79.670,173,200,111
401917.140,5755894.760,79.740,170,197,107
401917.060,5755894.840,79.640,172,198,112
401917.430,5755894.410,79.550,172,204,96
401917.380,5755894.490,79.570,163,192,99
401917.340,5755894.570,79.590,162,192,103
401917.300,5755894.650,79.650,162,192,98
401917.460,5755894.540,79.570,180,207,118
401917.420,5755894.620,79.590,175,200,114
401917.380,5755894.700,79.640,161,188,106
401917.490,5755894.670,79.570,196,218,133
401917.450,5755894.750,79.620,197,218,142
401916.840,5755893.090,80.110,215,226,166
401916.890,5755893.000,80.110,223,233,179
401916.940,5755892.940,80.070,196,213,150
401917.000,5755892.870,80.050,180,200,122
401917.060,5755892.850,79.970,203,221,145
401917.110,5755892.730,80.020,203,222,146
401917.160,5755892.640,80.020,202,219,140
401916.980,5755892.810,79.910,198,218,140
401917.030,5755892.710,79.940,188,210,126
401917.080,5755892.600,79.980,184,202,118
401917.130,5755892.480,80.030,206,221,143
401916.960,5755892.670,79.880,166,190,109
401917.010,5755892.560,79.920,183,202,118
401917.050,5755892.430,79.990,210,225,150
401917.100,5755892.310,80.040,216,228,165
401916.980,5755892.390,79.930,217,231,158
401917.030,5755892.270,79.980,216,230,162
401917.060,5755892.060,80.180,216,231,162
401916.950,5755892.230,79.940,206,224,149
401916.990,5755892.040,80.100,199,220,141
401917.040,5755891.960,80.080,190,211,133
401914.570,5755875.740,79.190,154,191,87
401914.460,5755875.790,79.030,148,182,73
401914.500,5755875.710,79.070,152,186,90
401914.550,5755875.600,79.250,162,194,107
401914.390,5755875.740,79.030,167,198,93
401914.440,5755875.660,79.060,172,204,105
401914.480,5755875.550,79.290,159,191,100
401914.520,5755875.470,79.300,151,182,91
401914.370,5755875.610,79.090,165,190,91
401914.410,5755875.520,79.180,162,189,92
401914.450,5755875.410,79.340,158,187,96
401914.500,5755875.340,79.320,144,174,83
401914.340,5755875.470,79.180,137,160,74
401914.390,5755875.390,79.160,142,169,81
401914.270,5755875.420,79.190,149,175,97
401914.320,5755875.350,79.170,148,176,95
401914.210,5755873.410,79.710,133,168,84
401914.150,5755873.370,79.690,159,191,107
401914.190,5755873.300,79.650,145,178,100
401913.620,5755871.380,80.040,148,174,116
401913.550,5755871.340,80.030,119,144,85
401917.280,5755894.640,80.130,173,201,125
401917.460,5755894.570,80.030,180,208,127
401916.800,5755890.250,79.790,166,193,113
401916.770,5755890.050,79.600,113,142,78
401914.940,5755878.150,78.950,158,191,114
401914.800,5755878.100,78.960,168,204,121
401914.850,5755878.010,78.970,170,208,116
401914.890,5755877.920,78.990,176,216,122
401914.620,5755878.060,79.000,155,192,102
401914.680,5755877.970,79.010,178,214,122
401914.730,5755877.880,79.020,180,217,120
401914.500,5755878.010,78.990,158,194,103
401914.550,5755877.920,79.010,192,225,135
401914.620,5755877.820,78.990,197,231,136
401914.450,5755877.870,78.970,184,220,124
401914.490,5755877.780,78.990,188,224,126
401914.440,5755877.630,78.970,186,219,118
401914.410,5755877.560,78.860,180,212,110
401914.620,5755876.310,78.990,159,187,85
401914.660,5755876.140,79.070,174,210,98
401914.650,5755876.070,79.150,179,215,90
401914.640,5755875.990,79.220,183,219,100
401914.590,5755876.330,78.820,180,198,109
401914.520,5755876.260,78.950,151,175,84
401914.610,5755876.160,78.930,153,185,88
401914.650,5755876.070,78.940,182,216,99
401914.560,5755876.010,79.100,176,212,77
401914.510,5755875.950,79.220,174,211,82
401914.530,5755875.860,79.250,167,205,85
401914.570,5755875.770,79.270,162,201,88
401914.590,5755875.690,79.320,149,188,84
401914.490,5755876.350,78.720,194,215,112
401914.540,5755876.260,78.740,182,199,109
401914.440,5755875.970,79.090,178,214,91
401914.410,5755875.900,79.190,174,210,94
401914.420,5755875.810,79.230,161,199,84
401914.450,5755875.730,79.260,157,196,85
401914.480,5755875.640,79.300,168,206,98
401914.520,5755875.550,79.320,159,194,96
401914.360,5755875.910,79.030,172,207,100
401914.370,5755875.830,79.090,185,220,111
401914.320,5755875.760,79.200,168,204,93
401914.370,5755875.670,79.220,172,209,94
401914.390,5755875.590,79.260,178,212,96
401914.440,5755875.500,79.260,151,185,79
401914.460,5755875.420,79.310,153,189,85
401914.470,5755875.330,79.350,165,201,98
401914.470,5755875.260,79.410,159,196,97
401914.190,5755875.880,79.080,156,188,86
401914.160,5755875.810,79.170,179,214,106
401914.200,5755875.720,79.190,180,215,99
401914.270,5755875.620,79.180,181,216,91
401914.290,5755875.540,79.220,175,208,92
401914.350,5755875.450,79.220,166,200,95
401914.410,5755875.350,79.230,167,202,97
401914.440,5755875.270,79.250,168,203,100
401914.460,5755875.180,79.290,164,200,107
401914.460,5755875.110,79.360,158,193,105
401914.460,5755875.030,79.410,147,181,90
401914.460,5755874.950,79.480,129,163,74
401914.460,5755874.880,79.540,140,170,90
401914.100,5755875.670,79.160,169,203,90
401914.160,5755875.580,79.160,170,205,92
401914.160,5755875.500,79.220,180,215,110
401914.220,5755875.400,79.230,172,208,109
401914.250,5755875.320,79.260,159,195,101
401914.280,5755875.230,79.290,155,190,98
401914.290,5755875.150,79.340,148,180,93
401914.290,5755875.080,79.400,134,166,84
401914.290,5755875.000,79.460,151,185,97
401914.270,5755874.930,79.540,146,176,88
401914.280,5755874.850,79.590,141,171,91
401914.070,5755875.370,79.250,151,182,95
401914.090,5755875.290,79.290,132,166,82
401914.070,5755875.210,79.370,136,170,89
401914.080,5755875.130,79.420,158,188,108
401914.110,5755875.050,79.440,138,170,85
401914.110,5755874.970,79.510,165,201,105
401914.130,5755874.890,79.550,174,207,110
401913.800,5755872.320,80.110,166,199,98
401913.970,5755874.480,79.850,177,204,119
401913.990,5755874.690,79.850,186,212,123
401914.380,5755874.590,79.810,174,199,117
401914.080,5755874.910,79.660,178,205,119
401916.390,5755890.580,79.810,189,215,141
401916.600,5755890.690,79.900,181,208,128
401916.700,5755890.860,79.930,189,217,135
401916.680,5755891.100,79.910,200,227,148
401916.670,5755891.560,79.880,212,235,167
401916.680,5755891.770,79.880,207,230,161
401916.880,5755892.340,79.930,210,232,158
401916.970,5755892.740,79.950,194,214,146
401917.100,5755892.880,80.000,200,222,154
401917.040,5755893.140,79.960,185,209,138
401916.870,5755893.470,79.870,164,193,116
401917.070,5755894.480,79.900,182,214,132
401916.950,5755891.240,79.810,187,216,141
401916.990,5755891.890,79.790,179,205,124
401917.300,5755893.740,79.820,157,190,99
401917.160,5755894.040,79.750,167,196,110
401917.340,5755894.160,79.820,163,194,104
401913.040,5755866.190,80.060,145,178,99
401913.080,5755866.290,80.020,155,186,114
401913.090,5755866.100,80.000,150,183,105
401916.460,5755889.480,80.010,56,88,61
401916.400,5755889.370,79.950,51,85,59
401916.370,5755889.430,79.850,60,95,64
401916.270,5755889.360,79.850,62,97,64
401916.870,5755891.040,79.670,154,175,97
401916.740,5755891.000,79.710,175,197,114
401916.460,5755891.100,79.970,165,192,108
401916.950,5755891.330,79.720,147,172,94
401916.860,5755891.250,79.690,139,162,87
401916.770,5755891.180,79.680,165,185,107
401916.640,5755891.140,79.730,180,201,120
401916.510,5755891.090,79.760,169,193,113
401916.990,5755891.490,79.670,153,179,98
401916.670,5755891.610,79.980,158,181,99
401916.550,5755891.570,80.010,153,174,93
401917.030,5755891.960,79.910,194,217,129
401916.880,5755891.930,79.980,178,202,117
401916.770,5755891.870,79.980,167,192,107
401916.780,5755891.710,79.840,158,183,98
401917.120,5755892.220,79.930,214,230,155
401917.060,5755892.120,79.880,217,235,155
401916.930,5755892.080,79.920,216,236,153
401916.810,5755892.030,79.950,207,231,143
401916.690,5755891.980,79.970,184,209,119
401916.580,5755891.930,79.980,175,196,110
401917.090,5755892.440,79.990,222,235,166
401917.010,5755892.350,79.960,212,227,158
401916.960,5755892.250,79.890,211,229,155
401916.850,5755892.190,79.900,214,233,158
401916.780,5755892.100,79.860,208,230,147
401916.670,5755892.040,79.870,190,214,128
401917.180,5755892.700,80.020,215,228,156
401917.080,5755892.640,80.020,207,226,144
401916.980,5755892.570,80.010,212,230,149
401916.910,5755892.480,79.970,223,237,162
401916.810,5755892.420,79.970,222,237,165
401916.710,5755892.350,79.960,221,236,165
401916.650,5755892.250,79.910,218,236,160
401917.170,5755892.890,80.030,214,227,153
401917.080,5755892.820,80.010,218,231,158
401916.990,5755892.760,80.010,212,230,150
401916.880,5755892.690,80.010,197,218,135
401916.820,5755892.600,79.960,213,231,152
401916.720,5755892.530,79.950,230,243,175
401917.240,5755893.030,79.950,171,193,110
401917.080,5755893.020,80.030,206,222,147
401916.980,5755892.950,80.030,219,231,159
401916.890,5755892.880,80.020,220,237,159
401916.810,5755892.800,79.990,200,221,142
401916.740,5755892.710,79.940,189,211,132
401917.170,5755893.130,79.910,145,172,91
401917.020,5755893.110,79.990,191,210,137
401916.900,5755893.060,80.010,225,236,169
401916.800,5755893.000,80.010,224,237,166
401916.730,5755892.910,79.970,213,230,156
401917.050,5755893.270,79.950,138,165,88
401916.930,5755893.220,79.970,163,186,113
401916.810,5755893.170,80.000,220,231,169
401917.250,5755893.440,79.820,157,183,91
401917.210,5755893.330,79.740,157,186,97
401916.980,5755893.370,79.920,144,172,92
401916.870,5755893.310,79.930,152,176,103
401917.310,5755893.580,79.740,184,210,118
401917.180,5755893.550,79.790,163,188,97
401917.060,5755893.490,79.810,163,188,102
401916.910,5755893.470,79.880,154,179,98
401917.330,5755893.760,79.730,182,212,117
401917.190,5755893.730,79.790,185,212,120
401917.080,5755893.670,79.800,173,197,107
401916.940,5755893.630,79.850,173,197,111
401917.400,5755894.030,79.780,145,173,81
401917.310,5755893.960,79.770,157,186,91
401917.190,5755893.910,79.790,165,196,101
401917.020,5755893.900,79.890,174,203,114
401916.990,5755893.790,79.800,171,196,110
401916.880,5755893.730,79.800,173,196,113
401917.350,5755894.250,79.850,170,199,108
401917.270,5755894.180,79.830,149,174,88
401917.190,5755894.100,79.800,151,176,89
401917.070,5755894.050,79.830,160,186,99
401916.930,5755894.020,79.890,165,193,108
401917.490,5755894.610,79.940,169,195,106
401917.410,5755894.530,79.920,166,195,104
401917.350,5755894.440,79.870,162,192,97
401917.240,5755894.380,79.880,171,200,107
401917.120,5755894.340,79.910,169,194,107
401917.070,5755894.240,79.850,165,190,107
401917.020,5755894.140,79.770,173,201,117
401917.480,5755894.800,79.960,153,178,93
401917.360,5755894.750,79.990,157,183,95
401917.330,5755894.640,79.910,152,180,92
401917.240,5755894.570,79.890,156,183,96
401917.130,5755894.510,79.900,166,192,105
401917.010,5755894.470,79.940,179,203,121
401917.470,5755894.990,79.990,146,175,93
401917.360,5755894.940,80.010,153,181,97
401917.280,5755894.860,79.980,148,176,93
401917.210,5755894.780,79.940,144,172,88
401917.130,5755894.700,79.910,149,174,92
401917.020,5755894.650,79.940,163,188,107
401917.540,5755895.120,79.900,148,180,107
401917.450,5755895.060,79.900,145,174,93
401917.290,5755895.040,79.970,153,180,96
401917.210,5755894.960,79.950,152,179,97
401917.140,5755894.880,79.920,143,170,89
401917.060,5755894.800,79.880,152,176,98
401917.470,5755895.220,79.870,148,178,98
401917.350,5755895.170,79.900,146,172,87
401917.180,5755895.170,80.000,165,189,105
401917.150,5755895.050,79.910,160,187,109
401917.090,5755894.960,79.850,142,170,93
401917.500,5755895.250,79.700,158,186,103
401917.330,5755895.240,79.800,150,177,90
401917.090,5755895.280,80.000,169,194,110
401912.650,5755865.770,80.040,137,167,83
401912.600,5755865.850,80.050,125,157,86
401912.790,5755865.820,80.090,149,181,108
401912.730,5755865.910,80.080,130,161,91
401912.680,5755866.000,80.100,139,164,107
401912.820,5755865.870,79.960,158,188,115
401912.780,5755865.960,79.990,176,206,132
401912.760,5755866.050,80.060,162,187,113
401912.710,5755866.140,80.070,155,181,114
401912.910,5755865.920,79.930,153,181,100
401912.880,5755866.010,79.980,173,202,121
401912.850,5755866.100,80.010,179,209,128
401912.810,5755866.190,80.050,180,209,130
401913.070,5755865.890,79.930,179,207,130
401913.030,5755865.980,79.950,177,206,126
401913.050,5755866.070,80.060,162,193,114
401912.960,5755866.160,80.020,160,192,112
401912.920,5755866.250,80.050,168,199,122
401912.880,5755866.340,80.080,180,211,136
401913.130,5755866.120,80.020,137,168,94
401913.080,5755866.210,80.030,147,179,102
401913.030,5755866.300,80.050,163,194,116
401912.990,5755866.390,80.070,158,191,111
401912.930,5755866.480,80.070,148,180,101
401912.890,5755866.570,80.100,167,196,112
401913.150,5755866.350,80.070,160,187,116
401913.100,5755866.440,80.080,150,180,106
401913.070,5755866.530,80.120,145,176,98
401912.970,5755866.620,80.050,154,187,94
401913.330,5755867.850,80.320,149,176,111
401913.250,5755867.940,80.300,122,153,90
401913.180,5755868.020,80.270,125,157,91
401913.080,5755868.110,80.210,154,187,110
401913.040,5755868.200,80.230,151,184,99
401913.000,5755868.290,80.250,157,188,109
401913.410,5755867.900,80.280,150,181,120
401913.330,5755867.990,80.250,138,168,110
401913.260,5755868.080,80.230,142,175,105
401913.150,5755868.170,80.140,157,193,104
401913.140,5755868.250,80.230,177,212,122
401913.080,5755868.340,80.210,174,205,127
401913.020,5755868.420,80.210,172,203,132
401913.370,5755868.130,80.240,127,163,104
401913.290,5755868.210,80.200,150,188,113
401913.200,5755868.300,80.150,163,200,115
401913.130,5755868.390,80.130,155,186,112
401913.070,5755868.480,80.120,148,176,111
401913.020,5755868.560,80.130,152,181,119
401913.390,5755868.260,80.190,130,166,111
401913.290,5755868.350,80.130,143,180,112
401913.200,5755868.440,80.080,145,177,108
401913.130,5755868.530,80.060,126,152,87
401913.080,5755868.620,80.070,111,141,74
401913.040,5755868.700,80.090,132,163,93
401913.400,5755868.320,80.040,112,149,102
401913.340,5755868.410,80.030,134,171,108
401913.270,5755868.500,80.010,144,173,109
401913.220,5755868.580,80.030,136,163,101
401913.170,5755868.670,80.040,139,172,98
401913.150,5755868.750,80.090,137,170,86
401913.120,5755868.840,80.130,157,187,100
401913.410,5755868.460,79.980,125,159,100
401913.360,5755868.550,79.990,149,174,114
401913.310,5755868.630,80.000,145,173,111
401913.270,5755868.720,80.030,150,184,109
401913.220,5755868.800,80.040,167,200,118
401913.480,5755868.600,80.010,140,168,109
401913.430,5755868.680,80.020,142,171,112
401913.360,5755868.770,80.010,140,171,101
401913.300,5755868.860,80.000,144,173,99
401913.470,5755868.820,80.010,162,189,121
401913.430,5755868.900,80.040,139,164,90
401913.550,5755868.950,80.060,173,201,129
401913.870,5755871.540,80.040,157,183,126
401913.950,5755871.590,79.990,144,169,113
401913.910,5755871.670,80.020,131,157,100
401913.880,5755871.750,80.060,112,143,85
401913.990,5755871.720,79.980,104,132,77
401913.930,5755871.810,79.970,94,125,68
401913.880,5755871.890,79.980,122,157,91
401913.870,5755871.960,80.050,163,197,113
401913.970,5755871.940,79.960,151,184,97
401913.960,5755872.010,80.030,158,192,103
401913.910,5755872.090,80.050,152,186,100
401914.020,5755872.060,79.970,171,205,117
401913.990,5755872.140,80.010,153,190,95
401913.950,5755872.220,80.020,159,195,114
401914.020,5755872.280,79.980,155,192,104
401913.840,5755872.600,80.040,136,166,97
401913.790,5755872.690,80.050,139,167,108
401913.740,5755872.770,80.050,147,171,115
401913.850,5755872.740,79.980,123,150,90
401913.800,5755872.820,79.990,117,145,85
401913.740,5755872.910,79.980,131,162,99
401913.800,5755872.960,79.910,130,161,88
401913.740,5755873.050,79.910,135,169,97
401913.870,5755873.020,79.860,132,166,91
401913.790,5755873.110,79.820,165,200,125
401913.740,5755873.190,79.840,168,200,122
401913.780,5755873.180,79.650,175,208,137
401913.810,5755873.240,79.780,184,218,138
401913.760,5755873.330,79.790,171,200,113
401913.780,5755873.390,79.900,146,178,91
401913.930,5755873.210,79.720,157,189,119
401913.880,5755873.300,79.730,165,197,121
401913.860,5755873.370,79.780,162,196,109
401913.860,5755873.440,79.860,161,196,109
401913.840,5755873.510,79.920,179,210,127
401913.790,5755873.590,79.930,182,208,131
401914.110,5755873.160,79.760,140,169,97
401914.080,5755873.240,79.790,137,170,93
401913.990,5755873.330,79.740,155,187,111
401913.960,5755873.410,79.780,169,203,122
401913.960,5755873.480,79.860,176,208,133
401913.930,5755873.560,79.910,198,224,148
401913.900,5755873.630,79.950,185,209,133
401913.860,5755873.710,79.980,178,208,130
401914.180,5755873.280,79.780,161,196,112
401914.040,5755873.390,79.650,160,193,108
401914.020,5755873.470,79.700,167,197,121
401914.020,5755873.540,79.790,168,197,129
401914.020,5755873.600,79.890,186,216,145
401914.000,5755873.680,79.940,185,211,134
401913.970,5755873.750,79.980,168,200,118
401913.850,5755873.860,79.870,175,212,125
401914.200,5755873.420,79.750,167,198,114
401914.180,5755873.490,79.790,152,179,107
401914.170,5755873.560,79.880,148,176,107
401914.130,5755873.640,79.900,153,187,122
401914.140,5755873.700,80.010,160,192,116
401914.080,5755873.790,79.990,153,189,103
401913.970,5755873.890,79.910,167,206,119
401913.910,5755873.980,79.890,163,199,112
401914.270,5755873.540,79.780,140,167,91
401914.240,5755873.610,79.830,122,149,86
401914.220,5755873.690,79.880,130,160,99
401914.200,5755873.760,79.930,169,201,129
401914.090,5755873.860,79.840,161,193,116
401914.030,5755873.950,79.840,166,201,125
401913.990,5755874.020,79.870,171,203,119
401913.970,5755874.100,79.920,172,206,121
401913.920,5755874.180,79.920,164,197,118
401914.230,5755873.820,79.820,150,181,104
401914.180,5755873.900,79.830,147,178,102
401914.160,5755873.980,79.880,162,190,128
401914.130,5755874.050,79.920,173,200,137
401914.090,5755874.130,79.950,169,202,129
401914.040,5755874.210,79.960,160,193,116
401913.970,5755874.300,79.930,175,208,126
401914.320,5755873.870,79.800,158,186,107
401914.240,5755873.960,79.760,161,188,115
401914.240,5755874.030,79.850,153,180,110
401914.230,5755874.100,79.920,146,177,107
401914.130,5755874.190,79.860,136,171,98
401914.090,5755874.270,79.870,155,189,111
401914.030,5755874.360,79.860,173,206,119
401913.960,5755874.450,79.840,189,221,127
401914.320,5755874.010,79.730,127,155,84
401914.150,5755874.260,79.710,121,153,84
401914.140,5755874.330,79.780,155,184,108
401914.100,5755874.410,79.820,160,191,108
401914.070,5755874.480,79.850,177,207,119
401914.020,5755874.570,79.850,165,198,103
401913.940,5755874.660,79.810,165,199,103
401914.180,5755874.520,79.860,141,175,98
401914.120,5755874.610,79.860,171,205,117
401914.010,5755874.710,79.770,168,201,114
401914.240,5755874.580,79.790,141,172,107
401914.210,5755874.650,79.850,169,202,123
401914.100,5755874.760,79.750,162,194,110
401914.040,5755874.840,79.740,140,172,84
401914.290,5755874.640,79.710,152,178,118
401914.260,5755874.710,79.750,160,189,121
401914.200,5755874.800,79.750,150,181,101
401914.120,5755874.890,79.710,147,180,90
401914.020,5755874.990,79.640,156,188,95
401914.000,5755875.060,79.690,147,180,86
401914.340,5755874.700,79.620,143,168,103
401914.280,5755874.780,79.630,154,180,111
401914.300,5755874.840,79.740,137,167,85
401914.160,5755874.950,79.610,133,166,78
401914.050,5755875.060,79.520,164,197,104
401914.390,5755874.750,79.550,121,149,77
401914.310,5755874.850,79.510,138,165,93
401914.360,5755874.890,79.680,151,182,101
401914.220,5755875.010,79.530,126,161,76
401914.120,5755875.110,79.470,137,174,87
401914.070,5755875.190,79.480,158,191,106
401914.460,5755874.810,79.490,147,177,94
401914.400,5755874.890,79.480,141,170,90
401914.410,5755874.950,79.600,156,189,107
401914.300,5755875.060,79.500,131,167,87
401914.200,5755875.160,79.420,139,176,88
401914.120,5755875.260,79.380,139,173,82
401914.060,5755875.340,79.380,152,185,94
401914.460,5755874.950,79.420,135,165,85
401914.450,5755875.010,79.500,153,185,101
401914.360,5755875.110,79.440,154,187,103
401914.310,5755875.200,79.440,148,183,83
401914.190,5755875.310,79.340,148,186,77
401914.130,5755875.390,79.320,168,205,97
401914.420,5755875.170,79.370,153,187,92
401914.350,5755875.260,79.340,159,196,85
401914.270,5755875.360,79.300,166,204,91
401914.230,5755875.430,79.330,185,219,109
401914.180,5755875.520,79.330,190,223,104
401914.470,5755875.290,79.370,158,195,84
401914.400,5755875.380,79.350,161,197,94
401914.340,5755875.470,79.340,155,186,83
401914.310,5755875.540,79.380,161,192,78
401914.180,5755875.660,79.260,185,219,89
401914.520,5755875.420,79.370,173,209,101
401914.450,5755875.510,79.350,168,202,90
401914.370,5755875.600,79.310,163,195,85
401914.280,5755875.700,79.260,191,222,111
401914.160,5755875.810,79.150,190,221,108
401914.540,5755875.610,79.420,186,220,107
401914.360,5755875.750,79.210,196,227,115
401914.230,5755875.860,79.100,198,229,115
401914.190,5755875.940,79.130,192,221,107
401914.420,5755875.810,79.140,194,227,108
401914.330,5755875.900,79.100,185,217,101
401914.290,5755875.980,79.120,179,207,97
401914.230,5755876.070,79.110,165,196,81
401914.490,5755875.860,79.090,189,225,102
401914.430,5755875.940,79.090,196,229,106
401914.390,5755876.020,79.120,196,225,107
401914.260,5755876.140,78.990,185,214,102
401914.210,5755876.220,79.000,160,192,83
401914.500,5755876.000,79.030,200,235,99
401914.450,5755876.080,79.050,208,238,113
401914.380,5755876.170,79.030,209,232,128
401914.590,5755876.100,79.100,213,239,116
401914.500,5755876.200,79.050,208,231,116
401914.670,5755876.210,79.170,203,232,104
401914.530,5755877.870,79.060,205,238,118
401914.660,5755877.900,79.100,183,221,85
401914.580,5755877.990,79.070,180,216,94
401914.860,5755877.820,79.180,172,212,74
401914.770,5755877.920,79.120,170,211,68
401914.700,5755878.020,79.090,165,206,74
401914.920,5755877.930,79.210,168,207,79
401914.920,5755878.020,79.050,146,184,69
401912.750,5755866.860,80.170,140,166,98
401913.100,5755866.740,80.150,163,195,92
401913.130,5755866.920,80.180,129,160,89
401913.060,5755867.270,80.180,117,148,103
401913.100,5755867.460,80.220,116,145,108
401913.080,5755867.630,80.230,149,179,121
401913.610,5755871.110,80.100,159,195,86
401913.540,5755871.280,80.080,154,189,87
401913.480,5755871.460,80.070,174,204,131
401913.530,5755871.630,80.110,185,215,139
401913.870,5755871.140,80.050,148,180,95
401913.740,5755871.310,80.000,138,171,81
401913.780,5755871.490,80.040,165,194,125
401913.810,5755871.660,80.080,157,186,117
401913.780,5755871.840,80.080,157,186,112
401913.790,5755872.010,80.110,162,194,106
401913.860,5755873.600,80.120,174,198,118
401913.890,5755873.770,80.150,172,196,113
401913.850,5755873.950,80.150,166,192,108
401914.040,5755873.280,79.990,163,189,114
401914.020,5755873.450,80.000,162,188,112
401914.060,5755873.620,80.040,181,206,124
401914.120,5755873.800,80.090,180,208,116
401913.990,5755873.970,80.040,180,209,115
401914.220,5755873.990,79.970,167,198,104
401914.150,5755874.170,79.960,170,197,113
401914.110,5755874.340,79.950,172,199,117
401914.230,5755874.190,79.810,155,181,102
401914.240,5755874.360,79.830,161,188,110
401914.110,5755874.530,79.780,170,198,112
401914.020,5755874.710,79.750,174,203,113
401914.290,5755874.560,79.690,156,180,110
401914.120,5755874.730,79.610,160,187,110
401914.110,5755874.900,79.620,163,192,103
401914.440,5755874.750,79.600,138,165,86
401914.290,5755874.930,79.530,147,175,93
401914.060,5755875.100,79.420,155,182,100
401914.460,5755874.950,79.440,147,175,90
401914.170,5755875.130,79.290,160,189,100
401914.070,5755875.300,79.250,165,197,90
401914.500,5755875.150,79.280,170,203,87
401914.340,5755875.320,79.210,175,211,73
401914.330,5755875.490,79.230,182,219,76
401914.120,5755875.670,79.120,199,232,91
401914.500,5755875.690,79.150,187,221,86
401916.490,5755890.510,79.760,187,215,131
401916.480,5755890.660,79.770,176,205,120
401916.620,5755890.770,79.870,182,210,121
401916.580,5755890.940,79.870,195,222,131
401916.670,5755891.070,79.940,202,227,135
401916.740,5755891.200,80.000,208,231,155
401916.690,5755891.370,79.990,208,230,156
401916.780,5755890.480,79.740,187,213,137
401916.790,5755890.630,79.770,170,198,120
401916.830,5755890.770,79.810,173,205,121
401916.760,5755890.940,79.790,190,219,133
401916.820,5755891.080,79.850,197,225,137
401916.850,5755891.220,79.880,202,228,152
401916.930,5755891.350,79.950,210,233,163
401916.860,5755891.520,79.920,214,235,167
401916.880,5755892.780,79.900,187,208,138
401916.930,5755892.920,79.950,179,202,134
401916.840,5755893.100,79.910,200,222,155
401916.850,5755893.250,79.940,184,208,141
401917.240,5755893.020,79.970,171,196,119
401917.070,5755893.230,79.880,146,177,96
401916.980,5755893.410,79.850,148,181,97
401917.090,5755894.560,80.070,215,237,173
401917.230,5755894.660,80.160,209,231,166
401917.200,5755893.400,79.800,146,180,82
401917.120,5755893.580,79.770,144,179,82
401917.050,5755893.750,79.740,155,190,93
401916.910,5755893.950,79.680,158,190,99
401916.920,5755894.090,79.710,167,196,112
401917.030,5755894.360,79.810,175,212,94
401917.130,5755894.470,79.890,185,218,127
401917.280,5755894.560,80.000,197,224,149
401917.440,5755894.650,80.110,202,226,157
401917.160,5755894.900,79.960,208,232,168
401917.310,5755893.720,79.720,163,197,92
401917.160,5755893.920,79.650,156,189,87
401917.210,5755894.050,79.700,145,175,96
401917.280,5755894.180,79.760,144,176,87
401917.340,5755894.300,79.810,160,196,93
401917.430,5755894.420,79.880,177,211,116
401917.500,5755894.840,79.990,195,221,150
401917.280,5755895.070,79.870,194,222,152
401917.260,5755895.220,79.880,193,223,147
401917.340,5755893.920,79.580,172,202,103
401917.370,5755894.060,79.610,166,193,116
401917.390,5755895.090,79.760,193,221,145
401917.550,5755895.180,79.870,185,214,134
401916.790,5755890.080,80.010,78,107,64
401916.730,5755890.150,79.940,79,108,62
401916.620,5755890.030,79.890,83,113,70
401916.760,5755890.260,79.860,116,140,83
401916.660,5755890.160,79.820,105,131,77
401916.550,5755890.050,79.770,93,121,70
401916.460,5755890.010,79.790,98,125,78
401916.370,5755889.960,79.800,87,115,64
401916.790,5755890.330,79.730,124,155,84
401916.690,5755890.300,79.760,133,160,92
401916.590,5755890.180,79.710,136,159,92
401916.500,5755890.140,79.720,121,145,84
401916.400,5755890.090,79.740,131,154,102
401916.310,5755890.020,79.730,130,152,96
401916.840,5755890.550,79.750,129,159,81
401916.750,5755890.500,79.770,134,164,89
401916.660,5755890.500,79.830,152,179,105
401916.550,5755890.360,79.750,162,185,113
401916.440,5755890.220,79.670,151,173,107
401916.340,5755890.140,79.650,146,169,106
401916.900,5755890.780,79.790,137,168,86
401916.790,5755890.680,79.760,144,174,97
401916.700,5755890.650,79.780,151,178,102
401916.850,5755890.920,79.800,147,177,98
401916.760,5755890.890,79.840,172,197,120
401916.670,5755890.860,79.870,170,196,117
401916.900,5755891.130,79.820,134,164,83
401916.810,5755891.090,79.840,157,186,109
401916.720,5755891.060,79.880,171,197,118
401916.620,5755890.950,79.830,167,194,110
401916.950,5755891.330,79.820,153,180,98
401916.860,5755891.280,79.840,160,186,105
401917.020,5755891.610,79.920,145,174,87
401916.910,5755891.480,79.850,157,183,95
401916.820,5755891.450,79.880,164,189,104
401916.970,5755891.720,79.900,143,172,81
401916.870,5755891.630,79.870,155,183,93
401917.040,5755892.040,80.050,168,188,109
401916.950,5755891.990,80.050,151,176,88
401916.820,5755891.760,79.870,145,172,77
401917.080,5755892.170,79.980,197,217,142
401916.990,5755892.150,80.020,173,195,117
401916.910,5755892.130,80.070,178,201,120
401916.760,5755891.830,79.810,156,178,92
401917.130,5755892.370,79.990,220,235,171
401917.030,5755892.290,79.970,202,221,150
401916.940,5755892.240,79.980,192,215,138
401916.850,5755892.200,80.000,183,206,128
401916.700,5755891.890,79.730,167,188,112
401916.650,5755892.020,79.940,163,187,112
401917.190,5755892.650,80.090,213,230,162
401917.080,5755892.510,80.000,213,232,159
401916.990,5755892.470,80.030,208,229,154
401916.890,5755892.370,79.980,201,224,149
401916.800,5755892.310,79.980,179,201,127
401916.700,5755892.260,79.990,159,179,113
401917.140,5755892.750,80.060,209,227,150
401917.040,5755892.650,80.010,184,208,118
401916.960,5755892.640,80.070,192,218,136
401916.840,5755892.500,79.980,212,233,165
401916.750,5755892.420,79.970,202,220,154
401916.650,5755892.360,79.960,175,190,130
401917.190,5755892.940,80.060,189,214,148
401917.090,5755892.860,80.040,214,232,160
401916.990,5755892.780,80.020,188,211,124
401916.900,5755892.700,80.000,173,201,118
401916.800,5755892.650,80.010,193,218,151
401916.710,5755892.560,79.980,212,233,167
401917.240,5755893.130,80.070,147,176,95
401917.150,5755893.090,80.090,161,190,121
401917.050,5755893.010,80.070,207,229,163
401916.950,5755892.940,80.060,204,223,150
401916.860,5755892.860,80.030,181,204,128
401916.760,5755892.790,80.030,188,213,143
401917.260,5755893.180,79.920,126,161,69
401917.190,5755893.260,80.080,128,161,75
401917.100,5755893.220,80.090,140,173,96
401917.010,5755893.160,80.090,184,210,143
401916.920,5755893.100,80.100,216,234,167
401916.820,5755893.010,80.060,188,207,131
401917.200,5755893.280,79.880,128,162,63
401917.120,5755893.290,79.960,113,148,60
401917.050,5755893.300,80.040,123,158,82
401916.960,5755893.270,80.070,167,197,130
401916.870,5755893.210,80.070,208,229,166
401916.770,5755893.130,80.050,213,228,161
401917.240,5755893.430,79.850,141,174,74
401917.160,5755893.410,79.890,129,164,56
401917.080,5755893.410,79.950,116,152,61
401916.990,5755893.360,79.970,124,159,84
401916.900,5755893.330,80.000,147,177,111
401916.810,5755893.300,80.040,175,203,136
401917.290,5755893.600,79.830,127,154,76
401917.190,5755893.520,79.810,123,156,63
401917.110,5755893.530,79.880,117,151,56
401917.030,5755893.510,79.930,116,151,61
401916.930,5755893.440,79.920,122,154,74
401916.850,5755893.410,79.950,131,159,87
401917.330,5755893.770,79.810,146,173,80
401917.240,5755893.700,79.800,127,155,68
401917.140,5755893.640,79.790,129,159,68
401917.060,5755893.620,79.840,132,161,75
401916.980,5755893.620,79.910,123,153,74
401916.880,5755893.540,79.890,133,161,84
401916.930,5755893.720,79.890,142,169,92
401917.430,5755894.760,79.820,138,171,73
401917.340,5755894.700,79.820,126,158,66
401917.460,5755894.880,79.750,146,180,82
401917.390,5755894.930,79.880,134,166,74
401917.300,5755894.860,79.870,127,158,75
401917.230,5755894.930,80.010,133,164,79
401917.150,5755894.920,80.070,143,177,87
401917.490,5755895.000,79.670,142,173,78
401917.450,5755895.170,79.940,144,177,82
401917.360,5755895.100,79.940,140,172,83
401917.270,5755895.090,79.990,137,167,90
401917.180,5755895.020,79.970,147,178,100
401917.100,5755895.000,80.020,146,180,92
401917.430,5755895.030,79.560,143,174,79
401917.390,5755895.220,79.850,146,177,86
401917.300,5755895.190,79.900,149,180,97
401917.220,5755895.190,79.970,152,182,104
401917.150,5755895.200,80.040,141,172,90
401917.410,5755895.270,79.700,148,180,83
401917.250,5755895.290,79.870,146,175,92
401917.100,5755895.320,80.050,134,168,84
401917.090,5755895.230,79.910,160,187,96
401917.180,5755895.290,79.890,164,192,101
401917.300,5755895.320,79.960,153,180,94
401917.080,5755895.070,79.920,157,182,99
401917.130,5755895.150,79.850,168,194,108
401917.290,5755895.170,79.960,166,192,105
401917.360,5755895.240,79.920,151,179,91
401917.040,5755894.810,80.050,171,193,117
401917.120,5755894.870,80.040,159,182,104
401917.200,5755894.940,80.010,158,181,101
401917.280,5755895.000,80.000,168,191,111
401917.350,5755895.070,79.940,169,193,112
401917.340,5755895.210,79.740,155,181,96
401917.430,5755895.270,79.730,155,179,96
401917.030,5755894.650,80.070,178,199,123
401917.100,5755894.720,80.030,165,188,109
401917.190,5755894.780,80.020,159,181,105
401917.310,5755894.820,80.080,154,177,101
401917.400,5755894.870,80.080,161,182,106
401917.310,5755895.060,79.720,162,184,105
401917.410,5755895.110,79.730,168,193,111
401917.510,5755895.160,79.750,156,180,98
401917.010,5755894.500,80.060,177,198,118
401917.090,5755894.560,80.040,179,201,117
401917.160,5755894.630,80.010,168,192,106
401917.270,5755894.670,80.040,150,174,94
401917.390,5755894.710,80.090,144,168,89
401917.460,5755894.780,80.050,165,185,110
401917.410,5755894.940,79.780,174,194,119
401917.520,5755894.980,79.810,177,199,117
