//X,Y,Z,R,G,B
401932.110,5755835.750,79.800,155,184,117
401932.700,5755834.960,79.800,174,196,135
401932.660,5755835.040,79.830,158,187,119
401932.620,5755835.110,79.850,159,188,122
401932.510,5755835.270,79.740,161,187,119
401932.480,5755835.330,79.860,156,185,112
401932.440,5755835.400,79.910,154,183,113
401932.370,5755835.490,79.760,144,175,110
401932.330,5755835.560,79.800,140,169,106
401932.300,5755835.630,79.870,143,171,109
401932.250,5755835.700,79.860,139,169,106
401932.880,5755834.900,80.130,172,190,141
401932.830,5755834.970,80.120,162,185,129
401932.740,5755835.070,79.860,174,203,136
401932.700,5755835.140,79.870,162,192,126
401932.680,5755835.200,80.020,161,190,124
401932.570,5755835.310,79.710,166,195,126
401932.530,5755835.380,79.750,164,192,121
401932.500,5755835.450,79.840,155,183,112
401932.440,5755835.530,79.720,162,191,121
401932.390,5755835.610,79.740,140,169,104
401933.020,5755834.800,79.980,185,204,160
401932.950,5755834.890,79.830,181,202,159
401932.940,5755834.940,80.050,172,191,148
401932.890,5755835.020,80.040,174,196,143
401932.830,5755835.100,79.980,185,212,145
401932.790,5755835.170,79.980,183,211,139
401932.740,5755835.240,80.000,161,192,122
401932.680,5755835.330,79.900,161,191,123
401932.640,5755835.400,79.920,159,189,119
401932.590,5755835.480,79.910,137,166,99
401932.520,5755835.570,79.750,139,169,104
401933.140,5755834.760,80.020,165,192,136
401933.090,5755834.840,79.980,185,204,158
401933.040,5755834.920,79.930,194,214,166
401933.000,5755834.990,79.950,188,213,155
401932.950,5755835.060,79.960,171,196,138
401932.910,5755835.140,79.980,151,175,117
401932.860,5755835.210,79.990,158,185,117
401932.820,5755835.280,79.990,147,177,109
401932.760,5755835.360,79.950,161,192,125
401932.720,5755835.440,79.950,171,201,132
401932.670,5755835.510,79.970,152,182,117
401933.300,5755834.660,79.950,150,179,127
401933.250,5755834.740,79.910,145,173,116
401932.980,5755835.170,80.000,129,155,103
401932.940,5755835.250,80.000,144,170,114
401932.890,5755835.320,80.010,149,175,117
401932.850,5755835.390,80.000,160,188,123
401933.420,5755834.620,79.950,130,161,115
401933.380,5755834.700,79.990,143,175,127
401932.970,5755835.350,80.040,160,180,132
401933.580,5755834.520,79.910,111,136,95
401933.540,5755834.590,79.970,123,144,107
401933.500,5755834.660,79.980,140,159,120
401933.450,5755834.740,79.970,145,170,129
401933.690,5755834.480,79.910,86,113,75
401933.650,5755834.560,79.920,93,121,84
401933.610,5755834.630,79.930,111,137,93
401933.560,5755834.700,79.930,116,134,93
401933.860,5755834.380,79.910,128,152,103
401933.810,5755834.450,79.890,132,158,108
401933.770,5755834.520,79.900,99,124,86
401933.720,5755834.600,79.920,95,123,83
401933.690,5755834.660,79.990,133,164,112
401933.650,5755834.730,80.040,116,144,97
401933.980,5755834.340,79.910,97,122,82
401933.930,5755834.420,79.910,116,140,97
401933.870,5755834.500,79.830,139,162,114
401933.840,5755834.560,79.900,121,146,103
401933.800,5755834.630,79.930,129,156,108
401933.750,5755834.700,79.970,133,161,108
401933.720,5755834.770,80.030,141,169,116
401934.130,5755834.240,79.820,120,149,96
401934.090,5755834.310,79.840,104,131,83
401934.050,5755834.380,79.910,150,181,128
401934.000,5755834.450,79.910,151,178,125
401933.960,5755834.530,79.910,125,151,100
401933.910,5755834.600,79.890,141,167,117
401933.870,5755834.670,79.920,148,174,124
401934.260,5755834.200,79.920,147,168,119
401934.190,5755834.280,79.780,148,172,114
401934.160,5755834.350,79.880,132,159,101
401934.120,5755834.420,79.900,150,177,117
401934.070,5755834.490,79.900,151,178,121
401934.020,5755834.570,79.840,147,177,120
401933.980,5755834.640,79.880,154,183,125
401934.360,5755834.170,79.790,156,179,132
401934.320,5755834.240,79.870,126,145,102
401934.260,5755834.330,79.730,133,156,105
401934.220,5755834.390,79.800,130,156,102
401934.150,5755834.480,79.620,125,153,97
401934.120,5755834.550,79.690,139,167,112
401934.090,5755834.610,79.860,148,176,118
401934.520,5755834.070,79.770,178,206,151
401934.470,5755834.140,79.750,169,197,142
401934.430,5755834.220,79.750,152,177,126
401934.380,5755834.290,79.750,132,157,110
401934.340,5755834.360,79.760,133,155,104
401934.290,5755834.440,79.760,134,157,106
401934.240,5755834.510,79.770,138,164,109
401934.180,5755834.590,79.660,146,170,114
401934.140,5755834.660,79.690,145,169,110
401934.590,5755834.110,79.770,192,217,156
401934.540,5755834.180,79.750,169,196,136
401934.500,5755834.260,79.750,148,174,118
401934.450,5755834.330,79.760,139,165,106
401934.410,5755834.400,79.760,133,160,99
401934.360,5755834.470,79.770,141,168,108
401934.300,5755834.560,79.630,141,166,108
401934.260,5755834.630,79.660,138,162,106
401934.210,5755834.700,79.700,125,151,96
401934.660,5755834.150,79.770,166,191,123
401934.620,5755834.220,79.780,173,197,135
401934.570,5755834.290,79.800,154,180,121
401934.520,5755834.370,79.770,129,159,97
401934.480,5755834.440,79.780,130,163,95
401934.430,5755834.510,79.770,156,186,115
401934.370,5755834.600,79.630,175,200,134
401934.330,5755834.670,79.650,174,201,140
401934.830,5755834.040,79.800,165,190,120
401934.780,5755834.110,79.780,166,195,120
401934.730,5755834.190,79.770,132,159,94
401934.690,5755834.260,79.780,133,158,105
401934.640,5755834.330,79.800,161,186,127
401934.590,5755834.410,79.750,182,211,138
401934.550,5755834.480,79.770,178,211,131
401934.500,5755834.550,79.750,181,214,131
401934.460,5755834.630,79.760,167,195,121
401934.910,5755834.070,79.940,176,205,136
401934.860,5755834.140,79.920,168,198,127
401934.810,5755834.220,79.840,150,180,117
401934.770,5755834.290,79.850,158,189,130
401934.720,5755834.370,79.830,175,205,135
401934.670,5755834.440,79.820,179,206,128
401934.630,5755834.510,79.860,165,194,111
401934.940,5755834.170,79.980,180,210,137
401934.900,5755834.250,79.980,189,220,149
401934.840,5755834.320,79.930,201,229,156
401934.800,5755834.400,79.920,184,212,140
401934.740,5755834.480,79.830,158,186,116
401935.020,5755834.210,80.040,164,194,124
401934.960,5755834.290,79.950,180,209,136
401934.910,5755834.360,79.910,179,208,133
401935.080,5755834.250,80.020,162,192,120
401935.030,5755834.330,79.900,153,182,113
401935.150,5755834.290,79.950,152,181,110
401935.560,5755834.060,79.730,180,211,139
401935.000,5755834.350,80.070,159,190,122
401934.860,5755834.400,80.100,149,180,106
401934.900,5755834.330,80.140,171,204,125
401934.930,5755834.260,80.190,185,215,136
401935.320,5755833.680,79.940,131,156,98
401934.730,5755834.490,79.970,140,174,105
401934.760,5755834.420,80.030,161,195,114
401934.800,5755834.350,80.050,160,193,109
401934.830,5755834.280,80.090,172,206,122
401934.860,5755834.220,80.130,173,202,126
401934.630,5755834.510,79.880,131,163,92
401934.660,5755834.440,79.920,139,172,100
401934.710,5755834.370,79.920,165,196,119
401934.750,5755834.290,79.930,166,195,113
401934.790,5755834.230,79.970,158,186,108
401934.820,5755834.160,80.000,140,169,98
401934.870,5755834.080,79.990,158,189,121
401934.930,5755833.990,79.950,186,215,147
401934.460,5755834.630,79.880,126,154,89
401934.490,5755834.560,79.920,136,167,95
401934.540,5755834.490,79.920,173,205,125
401934.600,5755834.400,79.870,172,204,124
401934.660,5755834.320,79.830,174,200,127
401934.700,5755834.240,79.850,132,155,88
401934.730,5755834.180,79.890,122,147,81
401934.800,5755834.080,79.800,137,168,95
401934.810,5755834.030,79.920,146,178,108
401934.860,5755833.950,79.900,171,198,134
401934.900,5755833.880,79.930,152,174,110
401934.350,5755834.660,79.830,155,183,123
401934.520,5755834.360,79.850,155,179,107
401934.570,5755834.290,79.870,146,169,109
401934.610,5755834.210,79.870,139,164,109
401934.660,5755834.140,79.860,134,164,103
401934.720,5755834.050,79.810,157,191,116
401934.750,5755833.990,79.870,159,191,115
401934.540,5755834.170,79.830,155,181,126
401934.580,5755834.100,79.850,165,194,135
401934.630,5755834.020,79.840,172,200,136
401934.500,5755834.070,79.860,167,194,136
401933.800,5755834.550,79.920,121,137,92
401933.720,5755834.520,79.950,95,117,77
401933.760,5755834.440,79.960,111,136,93
401933.630,5755834.490,80.000,86,112,76
401932.880,5755835.400,80.040,131,157,100
401932.780,5755835.420,79.930,150,177,112
401932.810,5755835.360,80.010,145,169,107
401932.630,5755835.530,79.870,152,177,106
401932.780,5755835.250,79.980,129,156,97
401932.840,5755835.170,79.950,132,159,99
401932.880,5755835.090,79.940,136,164,106
401932.930,5755835.010,79.940,165,194,130
401932.970,5755834.940,79.940,167,193,131
401933.050,5755834.840,79.810,160,182,131
401932.500,5755835.570,79.880,130,157,92
401932.390,5755835.600,79.830,133,161,99
401931.700,5755835.990,79.630,144,172,99
401931.750,5755835.910,79.600,143,170,98
401931.780,5755835.840,79.640,144,174,105
401931.870,5755835.740,79.410,159,187,115
401931.900,5755835.680,79.530,132,156,90
401931.920,5755835.620,79.650,115,140,82
401931.980,5755835.530,79.550,124,156,96
401931.550,5755836.050,79.750,124,154,89
401931.630,5755835.950,79.600,151,179,110
401931.680,5755835.870,79.570,146,173,101
401931.720,5755835.800,79.580,151,178,110
401931.810,5755835.650,79.600,114,137,78
401931.850,5755835.580,79.610,116,142,85
401931.920,5755835.490,79.510,108,138,80
401931.440,5755836.080,79.690,161,188,116
401931.490,5755836.000,79.670,167,197,120
401931.530,5755835.930,79.690,165,193,120
401931.600,5755835.840,79.580,141,168,97
401931.650,5755835.760,79.580,142,166,101
401931.730,5755835.620,79.620,136,157,98
401931.770,5755835.550,79.640,119,142,84
401931.820,5755835.470,79.600,110,138,80
401931.300,5755836.180,79.600,135,156,94
401931.350,5755836.100,79.540,146,169,104
401931.400,5755836.020,79.550,169,193,120
401931.430,5755835.960,79.610,171,195,121
401931.460,5755835.890,79.670,154,179,106
401931.520,5755835.800,79.600,126,152,84
401931.570,5755835.730,79.590,138,164,100
401931.610,5755835.660,79.600,139,161,97
401931.660,5755835.580,79.600,121,142,84
401931.700,5755835.510,79.610,104,131,78
401931.750,5755835.430,79.570,117,147,86
401931.180,5755836.210,79.580,136,162,96
401931.230,5755836.140,79.570,141,166,104
401931.270,5755836.070,79.590,145,170,106
401931.310,5755836.000,79.620,135,158,97
401931.340,5755835.930,79.660,143,165,108
401931.380,5755835.860,79.720,130,153,95
401931.450,5755835.770,79.610,131,156,96
401931.490,5755835.690,79.590,147,174,111
401931.540,5755835.620,79.610,154,177,114
401931.580,5755835.550,79.620,131,154,95
401931.040,5755836.270,79.690,143,168,99
401931.110,5755836.180,79.580,137,164,98
401931.150,5755836.100,79.570,142,167,104
401931.190,5755836.030,79.620,125,146,87
401931.230,5755835.960,79.640,108,130,79
401931.260,5755835.900,79.710,132,154,101
401931.310,5755835.820,79.700,131,153,101
401931.370,5755835.740,79.610,132,157,102
401931.420,5755835.660,79.610,151,175,122
401931.460,5755835.590,79.600,162,182,125
401930.880,5755836.380,79.680,142,167,106
401930.920,5755836.310,79.700,152,181,113
401930.980,5755836.220,79.620,136,164,97
401931.030,5755836.140,79.600,139,169,99
401931.070,5755836.070,79.610,140,165,101
401931.100,5755836.010,79.690,128,150,93
401931.150,5755835.930,79.670,106,129,77
401931.180,5755835.870,79.730,95,120,70
401931.220,5755835.800,79.760,129,153,98
401931.300,5755835.700,79.580,137,159,103
401931.350,5755835.620,79.570,143,165,109
401930.760,5755836.420,79.680,165,189,131
401930.810,5755836.340,79.660,155,176,115
401930.850,5755836.270,79.690,151,176,111
401930.900,5755836.190,79.660,134,160,96
401930.940,5755836.120,79.680,133,159,95
401930.980,5755836.050,79.700,128,151,88
401931.020,5755835.980,79.710,125,149,88
401931.070,5755835.900,79.730,120,145,86
401931.100,5755835.840,79.780,119,145,90
401931.150,5755835.760,79.780,138,163,105
401930.690,5755836.380,79.680,147,170,107
401930.730,5755836.310,79.710,152,175,111
401930.780,5755836.230,79.680,148,174,107
401930.830,5755836.150,79.640,135,159,95
401930.870,5755836.080,79.670,142,166,102
401930.910,5755836.010,79.660,106,130,72
401930.960,5755835.930,79.650,105,132,77
401930.990,5755835.870,79.760,124,149,92
401931.010,5755835.810,79.870,128,153,96
401930.610,5755836.350,79.730,162,188,128
401930.660,5755836.270,79.680,168,189,121
401930.710,5755836.190,79.640,154,175,109
401930.760,5755836.110,79.590,145,167,102
401930.800,5755836.050,79.660,138,162,94
401930.840,5755835.970,79.670,110,136,77
401930.890,5755835.900,79.670,107,135,79
401930.930,5755835.820,79.670,127,154,95
401930.590,5755836.230,79.660,162,182,106
401930.640,5755836.150,79.630,136,152,88
401930.690,5755836.070,79.590,121,141,85
401930.730,5755836.000,79.610,118,144,82
401930.780,5755835.930,79.610,107,134,75
401930.520,5755836.190,79.630,155,178,105
401930.570,5755836.110,79.600,136,155,94
401930.620,5755836.030,79.560,127,146,89
401930.660,5755835.970,79.610,136,158,95
401930.460,5755836.150,79.590,154,172,107
401930.500,5755836.080,79.580,139,157,98
401930.390,5755836.110,79.560,114,133,77
401930.210,5755836.230,79.630,146,173,104
401930.260,5755836.160,79.610,121,149,85
401929.450,5755836.580,79.450,176,202,127
401929.330,5755836.620,79.470,151,173,99
401928.670,5755837.260,79.580,132,161,93
401928.830,5755836.850,79.470,126,150,73
401926.680,5755838.450,79.080,118,140,66
401926.570,5755838.480,79.020,99,127,51
401926.610,5755838.420,79.110,107,138,57
401926.650,5755838.340,79.120,127,154,69
401926.700,5755838.270,79.140,129,156,71
401926.460,5755838.520,79.100,93,124,47
401926.500,5755838.450,79.140,86,118,44
401926.540,5755838.380,79.130,102,133,52
401926.590,5755838.310,79.120,121,150,69
401926.630,5755838.230,79.130,122,149,70
401926.340,5755838.560,79.130,122,155,71
401926.390,5755838.490,79.120,95,129,62
401926.430,5755838.410,79.140,90,123,62
401926.470,5755838.340,79.130,105,138,64
401926.520,5755838.270,79.150,129,161,82
401926.560,5755838.200,79.150,120,148,70
401926.360,5755838.380,79.160,127,159,94
401926.410,5755838.310,79.160,155,189,113
401926.300,5755838.340,79.160,145,175,103
401926.340,5755838.270,79.200,166,198,114
401930.430,5755836.550,79.720,187,214,142
401930.340,5755836.440,79.690,182,206,135
401930.230,5755836.340,79.680,158,183,113
401930.140,5755836.220,79.640,161,187,114
401930.360,5755836.650,79.670,182,210,138
401930.250,5755836.610,79.690,180,207,133
401930.150,5755836.480,79.660,186,212,139
401930.070,5755836.300,79.570,187,212,139
401930.170,5755836.720,79.650,183,211,139
401930.060,5755836.650,79.660,174,201,124
401929.960,5755836.560,79.640,171,198,121
401929.850,5755836.460,79.630,164,189,116
401929.970,5755836.840,79.680,173,200,118
401929.860,5755836.750,79.670,177,202,123
401929.770,5755836.600,79.600,178,203,131
401929.650,5755836.560,79.640,161,184,114
401929.640,5755836.910,79.720,185,214,139
401929.550,5755836.800,79.690,185,211,133
401929.440,5755836.700,79.680,165,190,115
401929.570,5755837.020,79.680,176,211,130
401929.460,5755836.950,79.680,182,213,126
401929.340,5755836.940,79.730,171,201,119
401929.260,5755836.750,79.640,177,204,124
401929.120,5755836.770,79.720,170,200,124
401929.100,5755837.180,79.860,188,218,139
401929.050,5755836.890,79.690,179,211,135
401929.050,5755837.220,79.760,182,213,133
401928.950,5755837.110,79.730,172,206,122
401928.870,5755836.930,79.640,176,209,125
401928.860,5755837.270,79.730,174,208,117
401928.780,5755837.080,79.630,176,210,112
401928.690,5755836.940,79.570,155,188,102
401928.700,5755837.240,79.630,185,219,127
401928.610,5755837.090,79.570,180,213,124
401928.730,5755837.450,79.600,160,192,107
401928.630,5755837.330,79.570,165,200,113
401928.530,5755837.230,79.540,181,216,121
401928.440,5755837.070,79.470,172,207,116
401928.290,5755837.190,79.640,175,207,127
401928.560,5755837.450,79.530,157,191,97
401928.450,5755837.390,79.540,178,214,117
401928.340,5755837.300,79.520,179,213,121
401928.200,5755837.370,79.650,181,213,127
401928.100,5755837.250,79.610,178,209,126
401928.480,5755837.570,79.490,175,208,109
401928.380,5755837.480,79.480,182,216,122
401928.000,5755837.490,79.680,179,214,130
401927.900,5755837.380,79.650,178,212,142
401928.170,5755837.640,79.540,176,212,127
401927.950,5755837.490,79.540,172,209,131
401927.840,5755837.420,79.550,171,207,141
401927.910,5755837.490,79.410,167,202,125
401927.790,5755837.440,79.420,167,200,129
401927.850,5755837.530,79.300,172,206,125
401927.760,5755837.400,79.250,167,199,121
401935.180,5755833.970,79.990,159,187,111
401935.230,5755833.860,80.020,163,195,121
401935.300,5755833.880,79.890,145,175,106
401935.340,5755833.720,79.970,151,181,115
401935.080,5755833.860,80.030,151,180,106
401934.700,5755834.350,79.980,153,180,111
401934.750,5755834.270,79.970,151,176,109
401935.010,5755833.870,79.920,150,176,111
401935.070,5755833.810,79.890,174,200,133
401934.570,5755834.410,79.930,166,196,111
401934.620,5755834.320,79.930,162,191,114
401934.670,5755834.230,79.930,148,173,104
401934.730,5755834.160,79.900,174,199,126
401934.770,5755834.030,79.960,174,205,123
401934.810,5755833.910,79.990,148,175,101
401934.490,5755834.370,79.870,142,170,95
401934.540,5755834.270,79.890,143,167,92
401934.600,5755834.220,79.850,174,196,127
401934.640,5755834.100,79.880,172,198,134
401927.870,5755837.790,79.320,161,199,109
401927.780,5755837.640,79.260,158,193,101
401934.400,5755834.280,79.880,139,164,101
401934.460,5755834.210,79.860,132,154,92
401934.510,5755834.130,79.840,164,187,123
401934.320,5755834.230,79.840,139,160,104
401934.370,5755834.150,79.840,161,181,127
401925.650,5755838.720,78.900,146,184,99
401925.790,5755838.860,79.330,155,189,93
401926.820,5755838.080,79.240,170,205,94
401926.740,5755838.400,79.320,174,209,107
401927.630,5755837.730,79.220,177,215,117
401927.500,5755837.880,79.220,175,210,115
401927.340,5755837.880,79.160,175,209,119
401927.240,5755838.150,79.220,178,214,121
401914.410,5755843.960,80.110,155,187,105
401914.270,5755844.130,80.210,151,190,104
401914.290,5755844.170,80.060,145,186,91
401914.200,5755844.140,80.090,154,196,100
401914.140,5755844.190,80.010,154,194,97
401914.050,5755844.150,80.030,146,186,86
401914.160,5755844.250,79.870,112,147,68
401914.070,5755844.230,79.920,126,162,87
401913.980,5755844.190,79.940,127,165,85
401913.930,5755844.300,79.920,104,141,79
401913.840,5755844.280,79.960,121,163,90
401913.880,5755844.530,80.010,83,123,69
401913.790,5755844.460,80.000,104,144,81
401913.700,5755844.450,80.060,111,153,80
401913.620,5755844.440,80.120,138,180,105
401913.530,5755844.450,80.200,159,201,118
401913.840,5755844.730,80.080,76,115,68
401913.740,5755844.610,80.030,86,125,70
401913.650,5755844.620,80.100,89,132,66
401913.570,5755844.600,80.150,91,134,69
401913.480,5755844.600,80.210,110,153,80
401913.390,5755844.510,80.190,133,175,92
401913.690,5755844.750,80.040,66,105,58
401913.600,5755844.700,80.050,65,105,53
401913.510,5755844.700,80.110,69,110,56
401913.420,5755844.650,80.130,83,125,67
401913.330,5755844.620,80.160,108,150,84
401913.630,5755844.850,80.000,44,80,42
401913.540,5755844.830,80.050,50,87,45
401913.450,5755844.760,80.040,62,101,54
401913.380,5755844.810,79.960,43,79,42
401912.970,5755845.190,80.150,58,96,59
401912.400,5755845.480,80.370,55,92,59
401912.250,5755845.530,80.360,35,70,40
401912.160,5755845.480,80.360,44,79,48
401912.100,5755845.580,80.530,56,92,56
401912.010,5755845.520,80.530,56,93,54
401912.030,5755845.600,80.430,44,77,48
401911.940,5755845.510,80.400,49,84,50
401911.860,5755845.550,80.500,52,88,51
401911.890,5755845.630,80.390,39,73,44
401935.460,5755833.630,79.860,134,166,76
401935.490,5755833.810,79.830,134,166,90
401935.390,5755833.770,79.860,144,174,103
401935.280,5755833.740,79.910,141,169,104
401935.620,5755834.060,79.810,150,181,107
401935.520,5755834.000,79.820,160,193,121
401935.420,5755833.960,79.850,149,180,113
401935.310,5755833.920,79.890,158,188,122
401935.210,5755833.880,79.920,151,181,119
401935.100,5755833.860,79.970,153,184,122
401935.450,5755834.120,79.810,145,177,107
401935.350,5755834.070,79.830,144,177,112
401935.240,5755834.050,79.880,164,196,131
401935.130,5755834.020,79.930,155,185,122
401935.020,5755834.020,80.000,157,187,122
401934.920,5755833.970,80.030,172,199,137
401935.270,5755834.210,79.840,139,172,105
401935.160,5755834.210,79.920,154,186,121
401935.060,5755834.150,79.920,159,189,125
401934.930,5755834.220,80.080,165,195,126
401934.830,5755834.220,80.150,165,194,127
401934.740,5755834.080,80.080,157,187,121
401934.990,5755834.280,79.930,153,184,114
401934.890,5755834.230,79.950,167,198,120
401934.780,5755834.200,79.980,155,184,111
401934.690,5755834.110,79.960,146,176,107
401934.920,5755834.390,79.890,143,175,102
401934.820,5755834.340,79.920,165,197,116
401934.730,5755834.240,79.890,146,174,101
401934.630,5755834.180,79.890,144,173,105
401934.540,5755834.100,79.880,174,201,137
401934.760,5755834.410,79.850,167,199,122
401934.670,5755834.320,79.830,156,184,110
401934.570,5755834.270,79.840,158,185,114
401934.470,5755834.210,79.850,157,183,122
401934.700,5755834.500,79.800,131,163,89
401934.600,5755834.440,79.820,149,183,105
401934.500,5755834.390,79.830,157,182,111
401934.410,5755834.320,79.830,145,169,108
401934.310,5755834.230,79.810,136,158,102
401934.540,5755834.540,79.780,139,172,96
401934.440,5755834.470,79.780,153,181,112
401934.340,5755834.430,79.810,145,170,110
401934.240,5755834.390,79.840,127,151,98
401934.130,5755834.370,79.900,133,157,101
401934.030,5755834.330,79.930,115,137,83
401934.480,5755834.600,79.700,136,165,96
401934.380,5755834.560,79.730,165,189,125
401934.260,5755834.580,79.830,140,161,106
401934.170,5755834.510,79.830,142,166,114
401934.060,5755834.480,79.870,142,168,113
401933.960,5755834.480,79.950,148,170,119
401933.860,5755834.430,79.960,123,144,100
401934.320,5755834.640,79.670,155,181,118
401934.200,5755834.670,79.790,141,164,104
401934.110,5755834.590,79.770,142,166,110
401934.000,5755834.560,79.820,143,168,112
401933.890,5755834.560,79.890,137,157,107
401933.800,5755834.510,79.910,115,134,90
401933.700,5755834.470,79.940,85,109,69
401934.020,5755834.790,79.840,138,163,106
401933.920,5755834.770,79.910,131,156,99
401933.820,5755834.710,79.910,149,172,117
401933.720,5755834.680,79.950,136,158,106
401933.620,5755834.640,79.980,116,138,94
401933.510,5755834.620,80.040,128,150,104
401933.410,5755834.600,80.100,135,165,107
401933.970,5755834.840,79.760,129,153,102
401933.850,5755834.910,79.910,124,147,99
401933.760,5755834.800,79.870,136,163,111
401933.660,5755834.740,79.880,140,167,111
401933.550,5755834.740,79.950,112,136,89
401933.450,5755834.700,79.990,117,141,94
401933.350,5755834.660,80.010,130,162,101
401933.690,5755834.950,79.890,125,149,98
401933.580,5755834.910,79.930,114,141,88
401933.490,5755834.830,79.910,94,118,74
401933.400,5755834.750,79.900,91,117,74
401933.300,5755834.700,79.910,114,144,91
401933.520,5755835.000,79.870,118,141,94
401933.430,5755834.920,79.860,113,135,94
401933.330,5755834.850,79.870,100,121,81
401933.240,5755834.800,79.880,93,117,73
401933.140,5755834.730,79.880,135,162,110
401933.460,5755835.090,79.830,127,149,99
401933.370,5755835.010,79.810,144,164,120
401933.270,5755834.940,79.820,128,145,100
401933.170,5755834.880,79.830,125,146,96
401933.070,5755834.840,79.860,150,176,120
401932.970,5755834.810,79.900,163,183,134
401933.300,5755835.110,79.780,141,163,109
401933.210,5755835.050,79.800,147,167,120
401933.110,5755835.000,79.810,169,188,136
401933.000,5755834.980,79.870,172,196,135
401932.910,5755834.930,79.890,163,186,131
401932.800,5755834.960,80.000,167,189,134
401933.140,5755835.180,79.800,153,174,124
401933.040,5755835.120,79.800,162,181,131
401932.940,5755835.100,79.860,160,184,125
401932.850,5755835.010,79.830,167,194,134
401932.730,5755835.070,79.980,175,201,141
401932.980,5755835.220,79.770,148,169,115
401932.870,5755835.240,79.870,146,170,107
401932.790,5755835.060,79.740,151,178,115
401932.690,5755835.000,79.760,155,183,120
401932.800,5755835.400,79.910,139,164,97
401932.720,5755835.190,79.750,146,173,110
401932.630,5755835.090,79.710,149,177,112
401932.540,5755835.030,79.720,159,185,120
401932.520,5755835.490,80.030,150,179,111
401932.470,5755835.170,79.740,162,188,121
401932.480,5755835.490,79.870,153,181,110
401932.370,5755835.510,79.980,160,188,116
401932.270,5755835.480,80.020,153,176,114
401932.200,5755835.200,79.770,161,185,123
401932.310,5755835.620,79.960,153,183,111
401932.210,5755835.540,79.950,155,186,113
401932.120,5755835.480,79.950,156,186,118
401932.020,5755835.430,79.970,160,191,118
401931.930,5755835.350,79.950,150,183,98
401932.250,5755835.650,79.840,142,169,105
401932.160,5755835.590,79.860,127,157,87
401932.060,5755835.540,79.870,138,173,98
401931.960,5755835.480,79.890,156,191,110
401931.880,5755835.380,79.840,145,179,94
401932.100,5755835.660,79.790,132,161,94
401932.010,5755835.570,79.760,132,167,90
401931.910,5755835.480,79.740,137,173,87
401931.820,5755835.400,79.720,141,175,90
401931.940,5755835.700,79.770,121,151,81
401931.850,5755835.580,79.700,117,149,72
401931.760,5755835.480,79.660,123,155,76
401931.880,5755835.800,79.730,142,169,100
401931.790,5755835.700,79.700,130,154,89
401931.700,5755835.590,79.650,125,149,86
401931.600,5755835.510,79.620,125,152,87
401931.810,5755835.900,79.700,150,177,108
401931.720,5755835.790,79.650,163,187,120
401931.630,5755835.700,79.630,150,170,102
401931.540,5755835.620,79.610,146,170,101
401931.660,5755835.910,79.650,156,182,108
401931.570,5755835.830,79.630,163,188,113
401931.470,5755835.760,79.620,158,185,117
401931.380,5755835.700,79.630,169,195,135
401931.280,5755835.650,79.660,146,171,110
401931.500,5755835.970,79.650,166,194,120
401931.410,5755835.900,79.640,159,186,119
401931.310,5755835.830,79.630,139,166,108
401931.220,5755835.780,79.660,128,155,94
401931.120,5755835.770,79.720,140,170,105
401931.430,5755836.110,79.660,166,192,118
401931.340,5755836.060,79.680,147,170,106
401931.240,5755835.990,79.680,122,146,89
401931.150,5755835.930,79.690,114,138,80
401931.050,5755835.890,79.710,125,152,90
401930.960,5755835.840,79.740,136,164,96
401931.270,5755836.190,79.690,154,176,111
401931.180,5755836.130,79.690,135,158,93
401931.080,5755836.070,79.700,147,169,104
401930.990,5755836.010,79.710,128,149,86
401930.900,5755835.940,79.710,124,150,84
401931.110,5755836.260,79.700,155,182,111
401931.020,5755836.210,79.720,151,176,107
401930.920,5755836.140,79.720,135,158,93
401930.830,5755836.070,79.720,123,146,83
401930.740,5755836.040,79.750,125,147,86
401930.950,5755836.320,79.710,157,186,119
401930.860,5755836.250,79.700,144,169,102
401930.770,5755836.180,79.700,137,159,93
401930.680,5755836.100,79.680,130,150,85
401930.580,5755836.040,79.690,141,161,92
401930.800,5755836.370,79.690,160,187,123
401930.700,5755836.340,79.740,161,185,117
401930.610,5755836.210,79.660,141,160,95
401930.520,5755836.160,79.680,129,150,85
401930.430,5755836.090,79.680,131,153,88
401930.640,5755836.440,79.710,160,184,120
401930.550,5755836.350,79.680,176,198,135
401930.460,5755836.250,79.640,152,172,107
401930.370,5755836.180,79.640,119,139,76
401930.490,5755836.480,79.680,181,205,139
401930.400,5755836.370,79.630,173,195,124
401930.300,5755836.310,79.650,151,170,101
401930.210,5755836.230,79.630,141,164,92
401930.330,5755836.510,79.660,174,201,125
401930.240,5755836.420,79.630,171,195,121
401930.150,5755836.330,79.600,176,200,125
401930.050,5755836.280,79.620,158,182,108
401930.270,5755836.650,79.680,177,206,131
401930.170,5755836.590,79.690,162,187,111
401930.090,5755836.450,79.590,163,187,113
401930.000,5755836.340,79.540,167,189,114
401930.110,5755836.670,79.630,166,191,113
401930.020,5755836.570,79.590,164,188,111
401929.930,5755836.460,79.530,164,185,114
401929.840,5755836.370,79.500,155,173,107
401930.050,5755836.760,79.600,165,190,113
401929.960,5755836.700,79.590,162,188,105
401929.870,5755836.550,79.490,168,190,115
401929.780,5755836.480,79.490,160,178,112
401929.900,5755836.810,79.580,162,191,102
401929.810,5755836.640,79.460,173,200,121
401929.720,5755836.540,79.420,191,215,142
401929.620,5755836.530,79.490,172,194,120
401929.840,5755836.880,79.520,170,201,117
401929.750,5755836.770,79.460,180,208,128
401929.660,5755836.690,79.450,175,202,122
401929.560,5755836.670,79.510,174,202,117
401929.470,5755836.630,79.540,173,200,118
401929.370,5755836.600,79.570,153,180,104
401929.680,5755836.960,79.540,164,195,118
401929.500,5755836.830,79.550,177,206,121
401929.400,5755836.800,79.590,176,203,123
401929.310,5755836.740,79.600,156,184,111
401929.220,5755836.720,79.650,152,181,108
401929.340,5755837.020,79.710,151,181,101
401929.250,5755836.930,79.690,148,179,101
401929.160,5755836.880,79.710,171,203,123
401929.060,5755836.830,79.720,152,184,105
401929.280,5755837.140,79.710,152,187,100
401929.190,5755836.980,79.600,156,190,102
401929.100,5755836.880,79.560,170,202,114
401929.010,5755836.840,79.580,155,188,99
401929.220,5755837.190,79.620,158,192,106
401929.130,5755837.110,79.610,166,199,113
401929.040,5755837.060,79.620,158,188,103
401928.950,5755836.970,79.590,166,199,113
401928.850,5755836.990,79.700,167,196,116
401928.760,5755836.900,79.670,143,173,97
401929.070,5755837.260,79.640,174,207,119
401928.980,5755837.220,79.670,162,191,105
401928.880,5755837.230,79.760,158,189,96
401928.790,5755837.120,79.710,165,199,109
401928.700,5755837.000,79.640,148,181,97
401928.920,5755837.300,79.620,172,202,112
401928.820,5755837.310,79.710,176,207,113
401928.730,5755837.240,79.710,179,213,123
401928.640,5755837.160,79.680,173,207,119
401928.550,5755837.030,79.610,159,190,109
401928.760,5755837.410,79.690,158,188,103
401928.670,5755837.340,79.690,166,200,113
401928.580,5755837.260,79.660,179,213,123
401928.490,5755837.160,79.620,164,196,109
401928.610,5755837.430,79.650,153,187,96
401928.520,5755837.360,79.640,162,196,104
401928.430,5755837.280,79.620,160,191,99
401928.340,5755837.190,79.590,150,180,95
401928.460,5755837.480,79.640,163,198,102
401928.370,5755837.400,79.610,176,207,113
401928.280,5755837.340,79.620,167,196,109
401928.190,5755837.250,79.590,159,189,108
401928.400,5755837.610,79.650,170,205,112
401928.310,5755837.530,79.630,169,202,109
401928.220,5755837.450,79.620,169,201,108
401928.130,5755837.360,79.580,159,191,107
401928.040,5755837.300,79.590,146,180,97
401927.950,5755837.350,79.730,131,166,78
401928.250,5755837.620,79.590,165,200,105
401928.160,5755837.590,79.640,173,205,107
401928.070,5755837.500,79.600,162,191,102
401927.980,5755837.390,79.560,158,187,105
401928.100,5755837.710,79.640,157,188,91
401928.010,5755837.620,79.610,154,184,100
401927.920,5755837.510,79.550,164,194,121
401927.830,5755837.470,79.590,161,192,121
401927.950,5755837.690,79.540,156,189,109
401927.860,5755837.600,79.510,157,192,122
401927.770,5755837.560,79.550,167,200,131
401927.680,5755837.480,79.520,161,192,119
401927.890,5755837.790,79.520,146,182,99
401927.800,5755837.720,79.520,146,182,105
401927.710,5755837.650,79.510,139,172,94
401927.620,5755837.560,79.470,139,171,99
401927.840,5755837.890,79.500,142,176,89
401927.740,5755837.830,79.500,152,186,102
401927.650,5755837.750,79.490,141,172,90
401927.560,5755837.650,79.430,146,178,107
401927.470,5755837.560,79.410,159,195,117
401927.690,5755837.930,79.480,142,173,91
401927.590,5755837.840,79.450,149,181,101
401927.500,5755837.730,79.390,157,190,115
401927.410,5755837.610,79.320,148,182,107
401927.540,5755837.910,79.390,147,180,103
401927.440,5755837.800,79.330,156,189,114
401927.350,5755837.690,79.270,152,185,115
401927.570,5755838.000,79.270,153,183,91
401927.470,5755837.960,79.290,131,162,79
401927.380,5755837.840,79.230,134,167,93
401927.290,5755837.760,79.200,141,177,95
401927.500,5755837.990,79.100,139,172,76
401927.410,5755837.920,79.090,119,149,67
401927.320,5755837.880,79.120,130,163,89
401927.230,5755837.790,79.090,143,179,92
401927.140,5755837.700,79.060,154,188,96
401927.440,5755838.040,79.010,133,167,67
401927.350,5755837.980,79.020,131,164,76
401927.260,5755837.930,79.040,143,178,101
401927.170,5755837.830,79.000,155,190,110
401927.080,5755837.920,79.190,161,193,104
401926.990,5755837.800,79.120,145,172,76
401927.290,5755838.020,78.910,143,179,88
401927.200,5755837.990,78.960,147,183,101
401927.110,5755837.930,78.960,155,191,108
401927.030,5755838.030,79.180,157,189,100
401926.930,5755837.910,79.110,150,178,85
401927.140,5755838.130,78.990,154,189,98
401927.050,5755838.080,79.000,153,188,95
401926.970,5755838.120,79.140,156,189,94
401926.880,5755838.070,79.160,151,183,91
401926.990,5755838.200,79.000,162,196,88
401926.920,5755838.340,79.280,164,198,99
401926.820,5755838.210,79.180,157,190,94
401926.770,5755838.350,79.210,160,195,96
401926.050,5755838.630,79.000,184,217,127
401925.960,5755838.520,78.940,180,211,110
401925.870,5755838.410,78.880,161,189,88
401925.990,5755838.690,78.920,192,224,123
401925.900,5755838.580,78.870,195,223,118
401925.810,5755838.520,78.870,181,207,108
401925.720,5755838.470,78.890,179,200,116
401925.930,5755838.730,78.830,179,213,100
401925.840,5755838.650,78.810,174,207,105
401925.750,5755838.620,78.850,175,206,115
401925.790,5755838.830,78.890,148,183,94
401925.700,5755838.810,78.950,144,181,92
401925.650,5755838.900,78.920,136,171,94
401925.560,5755838.910,79.010,125,162,89
401922.550,5755840.420,77.570,169,158,129
401922.460,5755840.390,77.620,166,156,127
401922.380,5755840.330,77.630,160,153,127
401922.290,5755840.280,77.660,154,149,128
401922.200,5755840.220,77.670,144,144,127
401922.110,5755840.160,77.660,137,140,125
401922.410,5755840.500,77.620,170,159,128
401922.330,5755840.450,77.640,165,156,126
401922.240,5755840.400,77.670,161,154,127
401922.150,5755840.330,77.650,156,151,128
401922.060,5755840.260,77.650,148,146,128
401922.350,5755840.580,77.580,175,162,128
401922.270,5755840.540,77.610,171,159,126
401922.190,5755840.490,77.640,167,157,127
401922.100,5755840.430,77.640,166,157,128
401922.010,5755840.370,77.650,162,155,128
401921.920,5755840.310,77.650,158,153,129
401922.210,5755840.620,77.570,174,161,127
401922.130,5755840.570,77.580,171,161,127
401922.040,5755840.510,77.590,168,159,126
401921.950,5755840.450,77.590,166,159,128
401921.860,5755840.380,77.600,165,159,129
401922.070,5755840.660,77.560,174,162,127
401914.280,5755844.100,80.190,152,190,109
401914.220,5755844.190,80.130,153,197,104
401914.110,5755844.200,80.200,159,200,113
401914.010,5755844.150,80.210,169,207,122
401914.150,5755844.370,80.140,142,184,96
401914.050,5755844.330,80.170,144,184,98
401913.950,5755844.300,80.200,152,192,111
401913.840,5755844.250,80.220,171,210,132
401914.090,5755844.470,80.100,116,154,85
401913.980,5755844.430,80.130,121,159,89
401913.880,5755844.390,80.160,139,179,107
401913.780,5755844.330,80.160,149,191,116
401913.670,5755844.330,80.220,159,198,118
401914.130,5755844.580,80.000,94,128,72
401914.020,5755844.510,80.000,94,127,74
401913.920,5755844.490,80.050,98,133,78
401913.820,5755844.480,80.100,112,151,87
401913.710,5755844.440,80.130,122,163,91
401913.610,5755844.470,80.210,136,178,101
401913.510,5755844.460,80.260,154,196,116
401913.960,5755844.640,79.980,71,105,60
401913.860,5755844.550,79.960,80,116,68
401913.750,5755844.550,80.020,88,127,73
401913.650,5755844.580,80.110,91,132,68
401913.540,5755844.620,80.200,92,135,70
401913.440,5755844.570,80.220,118,163,90
401913.340,5755844.560,80.270,136,179,101
401913.900,5755844.730,79.930,66,102,61
401913.790,5755844.620,79.890,63,101,56
401913.690,5755844.650,79.980,60,99,53
401913.580,5755844.620,80.020,60,101,50
401913.480,5755844.610,80.070,76,119,65
401913.380,5755844.600,80.120,98,140,81
401913.280,5755844.630,80.200,118,162,99
401913.620,5755844.830,80.000,47,83,45
401913.520,5755844.740,79.990,52,91,47
401913.420,5755844.730,80.030,57,99,52
401913.310,5755844.780,80.140,73,116,69
401913.350,5755845.010,80.140,47,84,45
401913.250,5755844.940,80.140,52,92,50
401913.190,5755845.030,80.090,48,85,46
401913.020,5755845.130,80.100,54,92,54
401912.490,5755845.400,80.310,54,93,56
401912.330,5755845.480,80.310,47,84,51
401912.230,5755845.440,80.330,44,81,49
401912.060,5755845.530,80.340,45,80,50
401911.960,5755845.510,80.380,50,84,53
401911.900,5755845.650,80.370,49,82,54
401911.800,5755845.490,80.290,42,75,46
401928.980,5755836.950,79.620,179,209,120
401929.260,5755836.640,79.610,180,207,121
401929.170,5755836.780,79.550,178,208,121
401929.170,5755836.950,79.540,186,215,125
401929.310,5755837.150,79.600,177,207,123
401929.670,5755836.860,79.640,177,206,116
401930.890,5755835.840,79.680,160,187,108
401931.280,5755835.740,79.740,153,178,98
401931.200,5755835.880,79.670,153,179,100
401931.250,5755836.050,79.690,158,185,100
401931.640,5755835.630,79.770,167,194,105
401931.630,5755835.790,79.760,156,181,101
401931.560,5755835.930,79.700,156,182,102
401931.860,5755835.480,79.730,169,203,89
401931.890,5755835.650,79.730,175,205,105
401931.930,5755835.820,79.750,180,207,120
401932.280,5755835.230,79.820,166,194,89
401932.160,5755835.360,79.730,164,193,92
401932.230,5755835.540,79.760,158,189,90
401932.270,5755835.710,79.770,164,193,104
401932.460,5755835.240,79.740,168,195,110
401932.440,5755835.390,79.710,170,199,109
401932.520,5755835.570,79.750,162,190,100
401932.820,5755834.980,79.790,179,203,129
401932.890,5755835.160,79.820,167,193,123
401932.740,5755835.270,79.720,156,183,109
401933.440,5755834.640,80.020,149,178,99
401933.310,5755834.760,79.930,158,186,107
401933.180,5755834.880,79.840,170,195,120
401933.070,5755835.000,79.760,176,198,132
401933.040,5755835.150,79.730,156,181,118
401933.700,5755834.520,80.010,127,153,92
401933.770,5755834.700,80.040,130,155,91
401933.720,5755834.840,80.000,140,166,96
401933.490,5755834.920,79.840,147,172,102
401933.410,5755835.060,79.780,165,187,126
401933.960,5755834.400,80.000,117,143,90
401933.910,5755834.530,79.950,131,155,102
401933.920,5755834.690,79.950,141,166,100
401933.880,5755834.840,79.910,144,170,96
401933.780,5755834.960,79.830,141,166,94
401934.180,5755834.260,79.960,119,141,87
401934.290,5755834.450,80.020,120,142,85
401934.270,5755834.600,79.990,143,167,103
401934.430,5755834.290,79.940,153,178,105
401934.470,5755834.450,79.950,147,173,97
401934.600,5755834.140,79.860,179,208,129
401934.640,5755834.300,79.880,172,201,122
401934.680,5755834.470,79.890,180,209,127
401934.840,5755834.010,79.850,188,214,139
401934.840,5755834.160,79.830,178,208,138
401934.880,5755834.330,79.840,160,192,118
401935.330,5755833.660,80.010,179,210,101
401935.190,5755833.770,79.910,176,204,119
401935.230,5755833.930,79.920,173,200,130
401935.200,5755834.070,79.890,186,213,143
401935.110,5755834.200,79.820,174,204,141
401935.520,5755833.820,79.930,178,208,94
401935.560,5755833.990,79.950,164,191,115
401935.450,5755834.100,79.860,174,200,132
401926.090,5755838.620,79.170,150,182,92
401926.120,5755838.570,79.060,152,183,96
401926.260,5755838.600,79.100,150,183,106
401926.070,5755838.410,78.990,152,180,88
401926.190,5755838.470,79.010,148,181,96
401926.340,5755838.490,79.070,142,176,100
401926.050,5755838.220,78.960,156,182,87
401926.200,5755838.250,79.010,156,185,88
401926.250,5755838.390,78.940,146,178,93
401926.460,5755838.340,79.080,125,158,77
401926.420,5755838.160,79.030,150,182,92
401926.780,5755837.910,79.080,138,169,79
401927.470,5755837.850,79.320,150,183,97
401927.590,5755837.910,79.330,144,176,89
401927.340,5755837.600,79.270,151,180,99
401927.480,5755837.630,79.330,151,183,103
401927.610,5755837.670,79.360,150,182,101
401927.710,5755837.760,79.350,154,185,102
401927.800,5755837.840,79.340,159,190,105
401927.760,5755837.480,79.420,146,177,101
401927.850,5755837.570,79.400,160,189,113
401927.880,5755837.730,79.300,164,194,112
401928.020,5755837.770,79.350,161,191,103
401928.270,5755837.640,79.570,158,188,100
401928.010,5755837.350,79.490,141,170,92
401928.100,5755837.450,79.460,149,178,92
401928.250,5755837.460,79.540,159,189,97
401928.370,5755837.510,79.560,165,194,107
401928.240,5755837.260,79.520,153,180,91
401928.340,5755837.340,79.510,159,187,96
401928.420,5755837.440,79.480,164,194,106
401928.510,5755837.530,79.460,158,187,107
401928.360,5755837.110,79.540,158,189,104
401928.450,5755837.190,79.520,161,191,104
401928.540,5755837.280,79.500,151,180,93
401928.650,5755837.340,79.520,145,174,90
401928.770,5755837.380,79.550,153,182,102
401928.580,5755837.010,79.570,144,173,90
401928.680,5755837.090,79.570,155,184,100
401928.800,5755837.140,79.590,158,188,105
401928.910,5755837.200,79.600,153,184,102
401929.030,5755837.250,79.630,156,186,105
401928.820,5755836.910,79.610,156,186,97
401928.930,5755836.970,79.630,151,182,96
401929.050,5755837.010,79.660,133,163,82
401929.160,5755837.080,79.670,139,167,90
401929.260,5755837.150,79.670,139,169,94
401929.050,5755836.800,79.660,149,182,91
401929.160,5755836.870,79.670,135,163,82
401929.270,5755836.930,79.690,135,161,90
401929.370,5755836.990,79.690,146,174,101
401929.470,5755837.070,79.680,149,176,103
401929.260,5755836.730,79.670,144,172,93
401929.370,5755836.790,79.690,129,157,84
401929.480,5755836.850,79.690,135,163,87
401929.590,5755836.910,79.710,151,177,101
401929.690,5755836.970,79.720,136,160,88
401929.350,5755836.610,79.650,146,173,100
401929.460,5755836.670,79.660,133,160,85
401929.560,5755836.740,79.670,135,161,84
401929.680,5755836.790,79.690,154,179,104
401929.780,5755836.860,79.690,147,172,98
401929.530,5755836.560,79.630,150,174,99
401929.630,5755836.640,79.620,158,182,109
401929.730,5755836.720,79.620,168,195,123
401929.850,5755836.750,79.660,155,183,107
401929.970,5755836.810,79.680,147,175,93
401929.600,5755836.470,79.580,154,180,103
401929.700,5755836.540,79.590,159,185,107
401929.810,5755836.610,79.590,153,182,108
401929.930,5755836.650,79.620,142,170,97
401930.040,5755836.700,79.650,137,164,85
401929.790,5755836.420,79.560,164,187,108
401929.890,5755836.480,79.570,145,171,96
401930.010,5755836.540,79.590,137,161,85
401930.140,5755836.580,79.630,138,162,84
401930.250,5755836.630,79.660,145,171,95
401930.030,5755836.300,79.630,162,184,110
401930.160,5755836.340,79.670,157,180,101
401930.250,5755836.420,79.660,161,184,104
401930.320,5755836.530,79.610,159,183,106
401930.460,5755836.550,79.670,150,177,105
401930.240,5755836.220,79.650,162,186,105
401930.300,5755836.350,79.580,152,175,98
401930.400,5755836.420,79.590,149,173,99
401930.580,5755836.390,79.700,153,179,113
401930.690,5755836.440,79.730,150,175,112
401930.490,5755836.090,79.730,137,159,86
401930.610,5755836.130,79.760,141,163,91
401930.710,5755836.200,79.770,149,173,104
401930.800,5755836.290,79.750,140,165,100
401930.880,5755836.390,79.720,142,165,105
401930.710,5755835.990,79.770,150,171,102
401930.800,5755836.080,79.750,149,170,100
401930.910,5755836.140,79.770,136,159,91
401930.980,5755836.240,79.730,137,160,95
401930.920,5755835.910,79.790,134,155,89
401930.970,5755836.050,79.710,127,149,83
401931.090,5755836.100,79.740,129,154,84
401931.200,5755836.150,79.770,136,162,91
401930.990,5755835.810,79.750,135,157,95
401931.090,5755835.890,79.740,134,155,92
401931.190,5755835.950,79.750,134,155,88
401931.290,5755836.020,79.750,134,156,88
401931.390,5755836.090,79.760,139,165,95
401931.170,5755835.770,79.730,128,153,94
401931.280,5755835.830,79.740,123,147,85
401931.390,5755835.890,79.750,127,148,85
401931.490,5755835.950,79.760,141,165,95
401931.600,5755836.010,79.780,135,160,92
401931.370,5755835.710,79.730,117,140,77
401931.510,5755835.720,79.800,118,141,80
401931.580,5755835.830,79.750,133,156,90
401931.690,5755835.880,79.780,133,156,90
401931.800,5755835.930,79.800,134,157,93
401931.440,5755835.600,79.690,143,165,101
401931.530,5755835.680,79.680,140,165,103
401931.630,5755835.760,79.670,137,162,95
401931.730,5755835.820,79.690,147,173,105
401931.840,5755835.880,79.700,144,171,102
401931.630,5755835.550,79.680,141,171,106
401931.750,5755835.590,79.720,140,170,103
401931.860,5755835.650,79.740,151,179,110
401931.970,5755835.700,79.760,144,173,100
401932.100,5755835.720,79.810,142,171,99
401931.940,5755835.320,79.890,135,165,95
401931.980,5755835.480,79.780,151,178,108
401932.090,5755835.530,79.800,139,166,97
401932.200,5755835.590,79.820,126,153,85
401932.290,5755835.670,79.800,134,160,94
401932.070,5755835.350,79.780,139,168,103
401932.180,5755835.400,79.800,130,158,98
401932.290,5755835.450,79.830,117,142,80
401932.390,5755835.530,79.820,130,153,88
401932.490,5755835.590,79.830,136,158,96
401932.290,5755835.240,79.830,117,140,84
401932.400,5755835.290,79.850,128,149,90
401932.470,5755835.410,79.800,139,160,96
401932.590,5755835.450,79.840,139,161,96
401932.710,5755835.490,79.880,149,172,109
401932.730,5755835.240,79.930,156,180,116
401932.840,5755835.300,79.940,153,176,115
401932.940,5755835.160,79.960,138,160,106
401933.010,5755835.270,79.910,128,147,99
401933.110,5755835.120,79.930,134,152,105
401933.180,5755835.240,79.880,145,166,116
401933.210,5755834.970,79.950,151,176,122
401933.290,5755835.070,79.920,136,161,111
401933.390,5755835.130,79.930,135,154,103
401933.300,5755834.860,79.940,146,174,111
401933.370,5755834.960,79.890,148,173,114
401933.470,5755835.020,79.910,144,164,106
401933.590,5755835.060,79.940,147,168,107
401933.390,5755834.720,79.950,141,168,110
401933.500,5755834.780,79.960,146,171,120
401933.580,5755834.870,79.940,133,157,103
401933.680,5755834.930,79.940,133,155,98
401933.580,5755834.660,79.950,116,138,94
401933.670,5755834.740,79.930,116,140,89
401933.760,5755834.810,79.930,126,148,90
401933.850,5755834.900,79.910,121,141,90
401933.860,5755834.460,80.130,111,132,84
401933.860,5755834.680,79.940,125,144,96
401933.940,5755834.770,79.910,124,144,98
401933.940,5755834.550,79.940,136,158,107
401934.010,5755834.660,79.880,114,136,85
401933.890,5755834.640,79.670,129,150,100
401933.970,5755834.730,79.650,123,146,89
401934.100,5755834.750,79.710,118,139,84
401934.010,5755834.470,79.720,126,146,97
401934.120,5755834.510,79.760,124,146,91
401934.240,5755834.550,79.790,114,136,80
401934.270,5755834.290,79.880,114,134,82
401934.380,5755834.350,79.890,124,145,92
401934.490,5755834.390,79.920,140,164,99
401934.600,5755834.440,79.950,158,186,108
401934.380,5755834.130,79.920,135,153,102
401934.490,5755834.190,79.930,132,150,97
401934.570,5755834.270,79.920,136,158,91
401934.680,5755834.310,79.950,150,178,101
401934.850,5755834.260,80.090,142,171,95
401934.940,5755834.350,80.070,157,186,110
401934.560,5755834.080,79.910,159,180,121
401934.660,5755834.150,79.910,159,181,114
401934.790,5755834.160,79.970,150,174,100
401934.880,5755834.230,79.970,161,187,109
401934.970,5755834.300,79.970,154,182,107
401934.760,5755834.000,79.930,152,177,109
401934.860,5755834.060,79.950,155,180,110
401934.960,5755834.110,79.970,170,195,124
401935.040,5755834.200,79.930,138,165,96
401935.130,5755834.280,79.920,139,165,97
401934.840,5755833.890,79.920,153,178,108
401934.950,5755833.930,79.950,154,179,111
401935.060,5755833.960,79.990,144,169,103
401935.120,5755834.090,79.920,140,168,101
401935.210,5755834.170,79.910,151,178,110
401935.160,5755833.830,80.010,153,181,115
401935.230,5755833.940,79.960,140,170,102
401935.300,5755834.030,79.920,141,171,103
401935.380,5755834.130,79.880,137,164,97
401935.220,5755833.750,79.950,141,172,105
401935.300,5755833.830,79.930,144,176,107
401935.380,5755833.920,79.910,142,171,102
401935.480,5755833.990,79.900,134,159,92
401935.570,5755834.050,79.910,144,170,100
401935.390,5755833.700,79.940,132,163,93
401935.470,5755833.790,79.910,151,183,110
401935.570,5755833.860,79.910,144,175,102
401925.800,5755838.370,78.960,170,194,94
401926.380,5755838.070,79.140,166,197,80
401926.310,5755838.170,79.130,168,199,78
401926.120,5755838.240,78.990,172,205,87
401926.110,5755838.360,79.060,181,212,101
401926.090,5755838.480,79.110,183,210,103
401926.570,5755838.030,79.110,152,187,82
401926.380,5755838.110,78.980,157,192,67
401926.320,5755838.210,78.980,164,199,64
401926.130,5755838.280,78.860,157,192,76
401926.190,5755838.420,78.990,161,196,76
401926.180,5755838.540,79.060,182,213,96
401926.200,5755838.660,79.150,183,215,91
401926.670,5755837.970,78.990,149,185,59
401926.640,5755838.090,79.030,157,195,73
401926.500,5755838.170,78.960,158,195,70
401926.430,5755838.270,78.950,157,194,69
401926.410,5755838.390,79.000,140,176,64
401926.360,5755838.500,79.020,143,179,60
401927.340,5755837.590,79.210,170,204,126
401927.180,5755837.660,79.100,169,204,113
401927.110,5755837.760,79.090,160,196,89
401926.830,5755837.930,78.940,143,176,61
401926.800,5755838.050,78.980,153,189,64
