//X,Y,Z,R,G,B
401843.610,5755908.850,79.950,51,81,51
401843.560,5755908.950,79.970,54,85,53
401843.510,5755909.040,79.980,62,92,58
401843.450,5755909.130,79.980,53,84,50
401843.390,5755909.210,79.980,53,84,49
401843.700,5755908.910,79.940,54,82,55
401843.650,5755909.010,79.960,59,91,58
401843.600,5755909.100,79.970,63,95,58
401843.540,5755909.190,79.970,68,101,61
401843.490,5755909.280,79.980,68,101,61
401843.790,5755908.980,79.920,48,75,51
401843.740,5755909.070,79.930,57,87,58
401843.690,5755909.160,79.950,55,87,54
401843.640,5755909.260,79.980,60,93,57
401843.590,5755909.360,80.000,59,92,54
401843.880,5755909.040,79.900,39,64,43
401843.840,5755909.150,79.950,49,76,53
401843.800,5755909.250,79.980,47,78,50
401843.750,5755909.340,80.000,66,97,63
401843.990,5755909.120,79.930,35,59,38
401843.950,5755909.220,79.970,36,59,40
401843.900,5755909.320,79.990,45,73,51
401843.850,5755909.410,80.010,54,83,56
401844.140,5755909.100,79.920,68,98,65
401844.090,5755909.200,79.960,54,83,56
401844.050,5755909.300,80.000,42,67,46
401844.000,5755909.400,80.010,28,50,35
401843.950,5755909.490,80.030,34,60,42
401844.250,5755909.190,79.970,61,91,60
401844.220,5755909.300,80.030,55,85,59
401844.160,5755909.390,80.030,61,90,66
401844.100,5755909.470,80.020,45,73,52
401844.050,5755909.560,80.040,32,58,40
401844.370,5755909.280,80.030,49,79,54
401844.320,5755909.370,80.040,47,78,55
401844.260,5755909.460,80.030,53,86,61
401844.460,5755909.350,80.020,52,83,59
401844.410,5755909.450,80.050,51,82,60
401844.630,5755909.350,80.080,68,99,68
401844.570,5755909.440,80.080,71,102,74
401844.750,5755909.450,80.150,86,116,82
401844.870,5755909.550,80.220,76,106,75
401844.960,5755909.610,80.200,60,90,62
401844.900,5755909.690,80.190,66,97,66
401845.060,5755909.690,80.230,59,90,61
401845.000,5755909.760,80.210,66,98,66
401845.020,5755909.900,80.170,70,100,68
401844.950,5755909.970,80.140,69,99,69
401845.020,5755910.020,80.070,65,94,65
401845.120,5755910.090,80.090,56,85,57
401845.210,5755910.150,80.060,55,82,54
401845.300,5755910.220,80.080,59,86,57
401845.530,5755910.150,80.160,44,73,51
401845.460,5755910.210,80.110,55,84,58
401845.780,5755909.940,80.120,49,81,52
401845.740,5755910.050,80.170,53,84,57
401845.680,5755910.130,80.170,47,78,53
401845.630,5755910.220,80.170,48,78,53
401845.550,5755910.270,80.090,57,86,57
401845.870,5755910.000,80.100,53,87,55
401845.810,5755910.090,80.110,59,92,61
401845.760,5755910.180,80.110,58,89,60
401845.690,5755910.250,80.090,58,89,60
401845.640,5755910.330,80.080,70,100,68
401845.940,5755910.050,80.050,58,90,54
401845.880,5755910.130,80.030,65,97,63
401845.820,5755910.210,80.030,57,89,59
401845.820,5755910.350,80.180,54,86,56
401845.710,5755910.380,80.030,62,93,61
401846.090,5755910.190,80.230,84,112,69
401846.040,5755910.270,80.240,80,109,70
401845.980,5755910.360,80.240,62,93,61
401845.890,5755910.400,80.140,57,88,59
401845.840,5755910.490,80.140,58,89,60
401846.160,5755910.230,80.170,85,112,74
401846.120,5755910.330,80.230,77,105,70
401846.070,5755910.420,80.220,53,82,52
401846.020,5755910.510,80.240,54,85,56
401846.320,5755910.220,80.200,79,108,69
401846.260,5755910.310,80.210,78,106,71
401846.200,5755910.390,80.200,70,99,68
401846.150,5755910.480,80.210,58,87,59
401846.070,5755910.530,80.120,66,96,67
401846.370,5755910.250,80.100,68,98,64
401846.330,5755910.350,80.140,59,89,57
401846.270,5755910.430,80.130,60,88,58
401846.220,5755910.520,80.150,54,82,54
401846.170,5755910.600,80.140,67,99,65
401846.420,5755910.270,79.980,54,84,54
401846.440,5755910.430,80.190,50,79,49
401846.340,5755910.470,80.050,57,87,54
401846.290,5755910.550,80.070,70,103,66
401846.230,5755910.640,80.070,71,106,65
401846.650,5755910.360,80.260,52,83,53
401846.610,5755910.450,80.280,56,88,55
401846.530,5755910.500,80.210,65,97,63
401846.490,5755910.610,80.260,73,106,67
401846.440,5755910.690,80.250,91,128,81
401846.760,5755910.440,80.300,59,92,59
401846.680,5755910.500,80.240,59,92,56
401846.610,5755910.560,80.170,70,103,64
401846.600,5755910.700,80.320,88,122,76
401846.540,5755910.770,80.310,90,127,78
401846.830,5755910.490,80.260,73,109,68
401846.800,5755910.590,80.320,69,104,62
401846.730,5755910.660,80.280,79,114,67
401846.670,5755910.740,80.270,92,127,78
401846.640,5755910.850,80.350,88,125,76
401846.900,5755910.520,80.170,90,126,83
401846.850,5755910.610,80.200,85,122,76
401846.790,5755910.690,80.190,83,121,71
401846.740,5755910.780,80.190,74,111,65
401846.710,5755910.890,80.270,72,109,63
401846.960,5755910.550,80.080,76,113,70
401846.930,5755910.670,80.170,72,110,67
401846.880,5755910.750,80.180,73,110,66
401846.830,5755910.840,80.190,75,112,68
401846.780,5755910.930,80.220,65,102,60
401847.130,5755910.580,80.200,65,102,61
401847.090,5755910.670,80.220,69,106,67
401847.030,5755910.750,80.230,63,100,61
401846.980,5755910.840,80.240,64,99,60
401846.890,5755910.880,80.120,65,101,62
401847.230,5755910.650,80.230,58,94,56
401847.170,5755910.730,80.220,54,89,56
401847.120,5755910.820,80.230,55,90,55
401847.070,5755910.900,80.230,53,87,53
401847.020,5755910.990,80.260,62,97,62
401847.290,5755910.680,80.130,56,89,58
401847.240,5755910.770,80.140,50,84,53
401847.190,5755910.850,80.150,54,88,54
401847.140,5755910.940,80.170,54,87,55
401847.090,5755911.030,80.190,54,87,56
401847.360,5755910.720,80.080,58,91,62
401847.310,5755910.820,80.100,53,85,56
401847.260,5755910.900,80.100,52,85,55
401847.220,5755910.990,80.130,51,83,55
401847.170,5755911.080,80.150,47,78,53
401847.440,5755910.780,80.060,41,69,47
401847.390,5755910.860,80.050,37,65,42
401847.330,5755910.940,80.040,43,73,49
401847.280,5755911.030,80.050,42,72,48
401847.230,5755911.120,80.070,45,75,51
401847.510,5755910.820,79.980,43,68,49
401847.440,5755910.890,79.940,46,73,52
401847.410,5755910.990,80.010,43,71,49
401847.350,5755911.080,80.000,42,72,48
401847.300,5755911.170,80.020,41,72,45
401847.570,5755910.850,79.880,49,72,55
401847.510,5755910.920,79.850,42,65,48
401847.440,5755910.990,79.810,40,66,46
401847.370,5755911.060,79.760,51,82,57
401847.340,5755911.170,79.840,59,93,62
401847.670,5755910.930,79.950,82,105,84
401847.600,5755910.990,79.880,56,74,64
401847.540,5755911.060,79.840,46,69,54
401847.450,5755911.110,79.720,51,80,57
401847.440,5755911.240,79.880,56,88,59
401847.740,5755910.970,79.870,114,138,111
401847.690,5755911.060,79.890,102,117,105
401847.610,5755911.110,79.780,76,90,84
401847.530,5755911.160,79.710,62,87,72
401847.510,5755911.290,79.830,47,78,54
401847.940,5755911.030,80.080,122,151,109
401847.600,5755911.360,79.830,56,86,64
401848.560,5755911.600,80.060,125,154,103
401848.660,5755911.690,80.120,132,160,99
401848.850,5755911.740,80.320,143,171,110
401848.740,5755911.740,80.100,127,154,98
401848.960,5755911.680,80.200,144,173,101
401848.910,5755911.760,80.210,127,154,93
401848.840,5755911.820,80.150,133,159,101
401848.800,5755911.920,80.190,153,179,120
401849.190,5755911.640,80.380,176,205,116
401849.120,5755911.700,80.320,166,195,112
401849.050,5755911.750,80.220,149,176,107
401849.010,5755911.850,80.290,158,183,117
401848.940,5755911.910,80.230,171,193,130
401848.880,5755911.970,80.180,155,180,114
401849.270,5755911.690,80.360,159,187,110
401849.210,5755911.760,80.330,153,180,109
401849.140,5755911.820,80.250,149,175,107
401849.080,5755911.890,80.220,155,182,120
401849.000,5755911.940,80.130,165,189,129
401848.950,5755912.030,80.150,144,170,103
401849.350,5755911.750,80.360,154,179,111
401849.300,5755911.840,80.360,138,163,103
401849.240,5755911.900,80.330,144,171,105
401849.160,5755911.950,80.210,144,174,109
401849.090,5755912.000,80.140,156,186,120
401849.420,5755911.790,80.290,138,163,95
401849.350,5755911.850,80.220,123,147,85
401849.290,5755911.920,80.180,136,162,95
401849.230,5755911.990,80.160,147,173,106
401849.170,5755912.060,80.140,156,185,111
401849.480,5755911.820,80.200,151,178,98
401849.430,5755911.900,80.200,147,175,93
401849.370,5755911.970,80.170,145,171,100
401849.310,5755912.050,80.160,166,188,124
401849.250,5755912.120,80.130,168,192,129
401849.560,5755911.880,80.180,152,179,99
401849.510,5755911.960,80.200,157,185,101
401849.470,5755912.060,80.240,161,188,113
401849.400,5755912.130,80.210,170,195,125
401849.350,5755912.200,80.180,164,187,121
401849.690,5755911.850,80.160,162,191,105
401849.640,5755911.940,80.180,151,179,99
401849.590,5755912.020,80.190,166,188,117
401849.540,5755912.110,80.210,185,206,138
401849.500,5755912.200,80.250,154,180,113
401849.760,5755911.900,80.130,172,198,117
401849.720,5755912.000,80.180,178,201,124
401849.670,5755912.080,80.180,176,195,130
401849.630,5755912.190,80.260,180,198,134
401849.850,5755911.970,80.160,157,184,109
401849.800,5755912.060,80.190,165,190,116
401849.760,5755912.160,80.250,161,187,114
401849.940,5755912.050,80.200,146,178,95
401849.900,5755912.140,80.240,146,176,96
401850.090,5755912.060,80.290,162,191,109
401850.040,5755912.130,80.270,155,186,105
401850.180,5755912.130,80.340,161,192,123
401850.130,5755912.210,80.320,133,162,101
401850.270,5755912.200,80.350,139,170,104
401850.220,5755912.280,80.360,144,173,112
401850.170,5755912.370,80.390,141,171,102
401850.120,5755912.450,80.390,150,181,108
401850.340,5755912.250,80.330,137,166,97
401850.290,5755912.330,80.340,152,183,110
401850.260,5755912.440,80.410,151,182,108
401850.200,5755912.510,80.400,152,180,110
401850.150,5755912.580,80.380,162,191,120
401850.480,5755912.250,80.380,146,174,109
401850.420,5755912.300,80.310,140,168,95
401850.370,5755912.380,80.310,156,187,109
401850.330,5755912.480,80.370,162,191,119
401850.280,5755912.560,80.380,144,169,104
401850.220,5755912.640,80.360,156,183,114
401850.550,5755912.290,80.320,158,188,122
401850.490,5755912.340,80.250,151,180,111
401850.430,5755912.420,80.240,165,195,123
401850.400,5755912.520,80.320,155,183,118
401850.350,5755912.610,80.340,149,175,115
401850.310,5755912.700,80.380,158,187,120
401850.630,5755912.340,80.310,157,184,120
401850.560,5755912.390,80.220,149,173,116
401850.510,5755912.470,80.200,143,167,112
401850.470,5755912.570,80.260,129,154,102
401850.420,5755912.660,80.300,137,162,104
401850.710,5755912.410,80.320,151,176,114
401850.640,5755912.450,80.210,143,163,109
401850.590,5755912.530,80.230,138,158,105
401850.550,5755912.630,80.280,142,168,111
401850.510,5755912.720,80.320,160,187,127
401825.300,5755899.760,80.010,193,204,156
401825.230,5755899.840,79.990,212,221,176
401825.170,5755899.940,80.000,227,235,190
401825.100,5755900.020,79.970,233,241,192
401825.030,5755900.100,79.960,220,229,178
401825.390,5755899.820,79.980,146,161,116
401825.320,5755899.900,79.970,166,177,136
401825.260,5755899.990,79.970,182,194,151
401825.190,5755900.080,79.950,215,226,179
401825.130,5755900.160,79.940,225,235,181
401825.480,5755899.880,79.950,182,193,145
401825.410,5755899.960,79.940,173,184,143
401825.350,5755900.050,79.940,174,185,148
401825.290,5755900.140,79.940,180,192,151
401825.230,5755900.230,79.920,193,206,155
401825.550,5755899.920,79.900,199,206,163
401825.500,5755900.020,79.900,182,191,151
401825.440,5755900.110,79.910,176,185,146
401825.390,5755900.200,79.910,184,193,151
401825.330,5755900.300,79.920,199,208,165
401825.650,5755899.990,79.880,227,231,188
401825.590,5755900.080,79.880,220,224,178
401825.530,5755900.170,79.880,224,229,185
401825.480,5755900.260,79.890,224,231,186
401825.430,5755900.360,79.900,229,236,193
401825.750,5755900.050,79.860,243,246,209
401825.670,5755900.130,79.830,241,244,202
401825.630,5755900.230,79.850,239,244,204
401825.580,5755900.330,79.870,226,236,195
401825.870,5755900.130,79.890,242,246,211
401825.810,5755900.220,79.880,246,249,217
401825.750,5755900.310,79.890,246,250,220
401825.700,5755900.410,79.890,236,243,211
401825.980,5755900.210,79.910,243,248,213
401825.930,5755900.310,79.920,241,245,212
401825.860,5755900.390,79.890,244,248,215
401825.810,5755900.480,79.910,244,247,216
401826.140,5755900.180,79.890,228,235,186
401826.090,5755900.280,79.900,222,228,187
401826.030,5755900.370,79.900,221,228,186
401825.970,5755900.460,79.910,228,235,191
401825.910,5755900.540,79.890,223,227,185
401826.230,5755900.240,79.860,238,244,194
401826.180,5755900.340,79.880,231,235,192
401826.110,5755900.420,79.860,233,238,195
401826.070,5755900.520,79.880,237,242,200
401826.020,5755900.620,79.900,231,236,195
401826.330,5755900.310,79.860,239,245,197
401826.270,5755900.400,79.850,242,246,204
401826.220,5755900.500,79.870,218,224,181
401826.180,5755900.600,79.910,219,226,184
401826.100,5755900.670,79.860,231,236,196
401826.440,5755900.380,79.860,239,244,203
401826.380,5755900.470,79.870,239,244,203
401826.330,5755900.560,79.870,225,233,189
401826.280,5755900.660,79.890,225,233,188
401826.230,5755900.760,79.910,241,247,204
401826.520,5755900.440,79.830,240,245,211
401826.470,5755900.530,79.830,236,243,204
401826.420,5755900.630,79.850,231,239,195
401826.370,5755900.720,79.870,234,241,200
401826.320,5755900.810,79.870,231,237,197
401826.630,5755900.500,79.820,233,236,200
401826.580,5755900.600,79.840,224,228,188
401826.530,5755900.700,79.860,219,223,182
401826.480,5755900.800,79.880,214,220,181
401826.730,5755900.580,79.830,205,204,161
401826.680,5755900.670,79.850,207,206,162
401826.640,5755900.770,79.870,209,208,165
401826.580,5755900.860,79.860,213,215,173
401826.880,5755900.540,79.790,220,215,165
401826.830,5755900.640,79.820,232,230,185
401826.780,5755900.730,79.830,235,232,191
401826.720,5755900.820,79.830,211,206,161
401826.680,5755900.920,79.850,203,197,150
401826.980,5755900.610,79.800,241,239,191
401826.940,5755900.710,79.820,247,247,206
401826.880,5755900.800,79.830,253,253,219
401826.830,5755900.890,79.830,241,241,206
401826.770,5755900.990,79.840,229,226,185
401827.070,5755900.670,79.770,245,246,203
401827.040,5755900.780,79.830,244,247,201
401827.000,5755900.880,79.850,244,247,207
401826.940,5755900.970,79.850,240,245,209
401826.880,5755901.050,79.850,234,238,201
401827.190,5755900.750,79.810,242,244,206
401827.150,5755900.850,79.840,234,240,195
401827.110,5755900.950,79.870,226,233,187
401827.050,5755901.040,79.870,228,231,190
401826.980,5755901.120,79.850,216,218,178
401827.300,5755900.820,79.820,238,243,205
401827.260,5755900.920,79.850,239,244,205
401827.210,5755901.020,79.870,234,240,200
401827.150,5755901.110,79.860,235,239,197
401827.080,5755901.180,79.830,241,243,200
401827.410,5755900.900,79.830,230,240,194
401827.360,5755900.990,79.850,232,239,196
401827.310,5755901.090,79.860,236,242,201
401827.250,5755901.170,79.850,238,243,202
401827.500,5755900.960,79.820,238,245,200
401827.450,5755901.050,79.830,241,248,204
401827.400,5755901.150,79.840,244,249,211
401827.340,5755901.230,79.830,240,245,207
401827.650,5755900.930,79.790,247,250,210
401827.600,5755901.020,79.800,242,247,205
401827.550,5755901.110,79.820,245,250,208
401827.490,5755901.200,79.810,249,252,216
401827.440,5755901.300,79.830,243,248,210
401827.760,5755901.000,79.800,240,246,206
401827.700,5755901.090,79.800,237,246,201
401827.640,5755901.180,79.800,236,244,200
401827.580,5755901.260,79.800,236,240,198
401827.530,5755901.360,79.810,240,245,204
401827.840,5755901.050,79.760,236,242,199
401827.790,5755901.150,79.780,233,241,196
401827.750,5755901.250,79.810,228,234,187
401827.690,5755901.330,79.810,225,229,180
401827.630,5755901.420,79.810,234,238,193
401827.980,5755901.150,79.850,246,249,211
401827.900,5755901.220,79.790,242,245,206
401827.850,5755901.320,79.820,234,237,193
401827.790,5755901.400,79.810,225,228,182
401827.740,5755901.490,79.810,229,233,187
401828.070,5755901.210,79.830,246,249,214
401828.000,5755901.290,79.810,242,245,206
401827.960,5755901.390,79.830,243,247,207
401827.900,5755901.470,79.820,238,241,200
401827.810,5755901.540,79.760,244,248,205
401828.170,5755901.270,79.820,239,244,207
401828.110,5755901.360,79.810,235,239,201
401828.060,5755901.450,79.830,235,239,200
401827.990,5755901.530,79.810,239,244,204
401828.320,5755901.250,79.820,238,242,206
401828.260,5755901.340,79.810,234,238,199
401828.190,5755901.410,79.770,231,236,197
401828.130,5755901.500,79.770,224,230,189
401828.070,5755901.580,79.760,225,233,191
401828.420,5755901.320,79.810,246,247,220
401828.370,5755901.410,79.830,248,250,220
401828.340,5755901.520,79.880,245,248,213
401828.300,5755901.620,79.930,246,248,216
401828.260,5755901.710,79.950,241,245,213
401828.520,5755901.380,79.810,250,252,227
401828.470,5755901.480,79.830,250,252,228
401828.430,5755901.580,79.860,244,247,214
401828.370,5755901.660,79.870,246,249,214
401828.330,5755901.760,79.900,246,250,218
401828.600,5755901.440,79.780,252,254,226
401828.550,5755901.530,79.780,255,255,232
401828.500,5755901.620,79.800,254,254,231
401828.430,5755901.700,79.770,252,254,226
401828.350,5755901.770,79.730,251,253,225
401828.730,5755901.530,79.840,247,251,215
401828.720,5755901.650,79.960,251,253,220
401828.680,5755901.750,79.980,253,254,224
401828.590,5755901.810,79.910,254,254,227
401828.470,5755901.850,79.760,255,255,230
401828.850,5755901.610,79.880,237,242,196
401828.820,5755901.710,79.940,243,247,204
401828.760,5755901.800,79.950,248,251,213
401828.660,5755901.850,79.840,252,253,219
401828.610,5755901.940,79.850,253,254,222
401828.920,5755901.650,79.830,234,240,191
401828.860,5755901.740,79.830,241,246,201
401828.830,5755901.840,79.880,247,251,211
401828.770,5755901.930,79.870,250,252,214
401829.080,5755901.630,79.840,231,233,170
401829.030,5755901.720,79.850,238,241,187
401828.980,5755901.820,79.870,237,241,191
401828.930,5755901.910,79.890,243,247,201
401828.890,5755902.000,79.910,246,249,206
401829.170,5755901.690,79.810,220,226,149
401829.110,5755901.780,79.810,215,218,150
401829.060,5755901.870,79.820,231,231,168
401829.000,5755901.950,79.820,237,232,179
401828.950,5755902.040,79.820,240,236,189
401829.270,5755901.760,79.830,198,203,132
401829.210,5755901.840,79.810,208,209,141
401829.150,5755901.930,79.820,229,222,161
401829.100,5755902.020,79.820,240,228,175
401829.040,5755902.110,79.820,236,225,177
401829.350,5755901.810,79.790,208,206,144
401829.300,5755901.910,79.810,214,210,149
401829.250,5755902.000,79.820,226,214,160
401829.200,5755902.090,79.840,237,224,173
401829.150,5755902.180,79.840,232,220,171
401829.430,5755901.860,79.740,225,224,169
401829.360,5755901.940,79.710,225,223,171
401829.300,5755902.030,79.720,232,229,178
401829.260,5755902.120,79.740,240,235,187
401829.270,5755902.260,79.910,243,237,190
401829.560,5755901.950,79.830,236,242,191
401829.510,5755902.050,79.850,235,241,191
401829.470,5755902.140,79.880,235,241,192
401829.400,5755902.220,79.840,234,239,192
401829.650,5755902.010,79.810,208,223,166
401829.610,5755902.120,79.860,226,239,185
401829.570,5755902.210,79.890,234,244,195
401829.490,5755902.280,79.830,242,248,206
401829.800,5755901.990,79.800,232,241,200
401829.760,5755902.090,79.830,212,225,174
401829.710,5755902.180,79.850,232,243,193
401829.670,5755902.280,79.890,239,248,204
401829.630,5755902.380,79.930,245,250,213
401829.890,5755902.050,79.800,242,248,215
401829.850,5755902.150,79.840,236,244,205
401829.810,5755902.250,79.860,243,249,209
401829.760,5755902.340,79.890,245,251,212
401829.730,5755902.440,79.940,245,251,216
401829.990,5755902.120,79.810,243,250,215
401829.960,5755902.220,79.860,245,249,215
401829.910,5755902.310,79.870,241,246,207
401829.850,5755902.400,79.870,237,244,202
401829.800,5755902.490,79.890,237,244,203
401830.090,5755902.180,79.810,247,251,216
401830.040,5755902.280,79.830,241,245,209
401830.000,5755902.370,79.860,238,243,203
401829.940,5755902.460,79.860,237,243,199
401829.880,5755902.540,79.850,241,247,203
401830.190,5755902.250,79.830,246,250,213
401830.140,5755902.340,79.840,238,241,201
401830.080,5755902.420,79.820,229,233,187
401830.010,5755902.500,79.800,232,236,190
401829.950,5755902.590,79.790,236,242,194
401830.260,5755902.300,79.770,232,238,195
401830.210,5755902.390,79.780,231,235,190
401830.150,5755902.470,79.770,226,229,181
401830.090,5755902.560,79.760,231,234,184
401830.040,5755902.640,79.760,230,236,182
401830.340,5755902.350,79.730,218,221,172
401830.290,5755902.440,79.730,221,225,175
401830.240,5755902.530,79.740,234,237,190
401830.180,5755902.610,79.740,229,232,182
401830.500,5755902.330,79.750,238,243,197
401830.440,5755902.420,79.730,233,232,183
401830.380,5755902.500,79.740,234,236,186
401830.330,5755902.590,79.730,239,244,201
401830.270,5755902.670,79.720,242,246,207
401830.580,5755902.390,79.720,239,244,199
401830.530,5755902.480,79.720,235,237,188
401830.470,5755902.560,79.710,235,237,190
401830.410,5755902.640,79.700,245,249,207
401830.360,5755902.730,79.700,246,251,211
401830.690,5755902.460,79.750,212,221,169
401830.620,5755902.540,79.730,219,226,174
401830.560,5755902.620,79.710,221,227,179
401830.500,5755902.700,79.700,227,234,186
401830.450,5755902.790,79.710,239,245,196
401830.760,5755902.510,79.700,229,236,184
401830.700,5755902.590,79.690,226,232,183
401830.640,5755902.670,79.670,213,220,173
401830.590,5755902.760,79.670,217,222,175
401830.530,5755902.840,79.680,239,245,197
401830.850,5755902.570,79.680,245,248,206
401830.800,5755902.650,79.680,247,249,215
401830.740,5755902.740,79.680,245,247,208
401830.690,5755902.830,79.690,246,248,207
401830.630,5755902.910,79.700,248,251,209
401830.930,5755902.620,79.650,246,250,211
401830.880,5755902.710,79.660,247,250,216
401830.830,5755902.800,79.680,246,248,211
401830.780,5755902.890,79.690,247,249,212
401830.730,5755902.980,79.700,248,251,212
401831.010,5755902.670,79.620,237,243,200
401830.960,5755902.760,79.620,232,238,196
401830.910,5755902.850,79.630,236,241,198
401830.860,5755902.940,79.660,237,242,197
401830.810,5755903.030,79.670,239,244,202
401831.110,5755902.740,79.640,238,242,198
401831.050,5755902.820,79.600,239,244,202
401830.990,5755902.900,79.600,236,241,200
401830.950,5755903.000,79.650,218,226,177
401831.260,5755902.720,79.630,221,229,179
401831.190,5755902.790,79.590,228,234,186
401831.140,5755902.880,79.600,226,233,185
401831.100,5755902.980,79.640,228,235,187
401831.050,5755903.070,79.660,232,239,192
401831.350,5755902.780,79.630,237,243,198
401831.300,5755902.870,79.640,237,243,195
401831.240,5755902.950,79.640,232,237,188
401831.200,5755903.040,79.670,234,240,191
401831.150,5755903.130,79.670,241,245,202
401831.450,5755902.850,79.660,241,246,202
401831.400,5755902.940,79.660,232,239,187
401831.350,5755903.020,79.660,232,238,187
401831.300,5755903.110,79.680,245,248,208
401831.240,5755903.200,79.680,249,250,215
401831.540,5755902.910,79.650,242,246,200
401831.490,5755903.000,79.660,235,241,191
401831.440,5755903.090,79.670,239,243,198
401831.390,5755903.180,79.690,251,253,215
401831.340,5755903.260,79.700,250,252,214
401831.640,5755902.980,79.670,246,249,206
401831.590,5755903.060,79.670,247,250,205
401831.540,5755903.150,79.680,245,248,202
401831.490,5755903.240,79.690,240,243,195
401831.430,5755903.320,79.700,231,237,188
401831.730,5755903.040,79.670,240,242,200
401831.680,5755903.120,79.670,241,243,200
401831.630,5755903.210,79.680,240,242,195
401831.580,5755903.300,79.690,241,243,197
401831.530,5755903.390,79.700,240,244,198
401831.880,5755903.020,79.680,241,244,203
401831.820,5755903.100,79.670,231,232,194
401831.770,5755903.190,79.670,224,226,184
401831.720,5755903.270,79.670,221,225,180
401831.660,5755903.350,79.660,211,213,170
401831.970,5755903.080,79.680,250,252,217
401831.920,5755903.170,79.680,251,252,219
401831.860,5755903.250,79.680,242,245,207
401831.810,5755903.330,79.680,233,238,198
401831.740,5755903.410,79.640,223,228,188
401832.070,5755903.150,79.690,254,254,224
401832.010,5755903.230,79.690,250,251,216
401831.950,5755903.310,79.670,248,250,215
401831.900,5755903.390,79.660,246,249,214
401831.840,5755903.470,79.650,241,245,209
401832.160,5755903.210,79.700,251,252,219
401832.110,5755903.300,79.720,250,251,211
401832.060,5755903.380,79.720,250,251,212
401831.990,5755903.460,79.680,250,252,216
401831.940,5755903.540,79.680,249,251,216
401832.250,5755903.270,79.690,244,246,208
401832.190,5755903.350,79.670,247,248,206
401832.140,5755903.430,79.680,253,253,215
401832.080,5755903.510,79.670,252,253,218
401832.010,5755903.590,79.640,249,251,215
401832.360,5755903.340,79.750,245,248,209
401832.280,5755903.410,79.680,250,252,213
401832.240,5755903.500,79.710,252,254,217
401832.180,5755903.580,79.700,252,253,220
401832.110,5755903.650,79.660,249,253,218
401832.440,5755903.400,79.740,230,237,189
401832.390,5755903.490,79.740,231,237,188
401832.330,5755903.560,79.720,241,247,198
401832.260,5755903.640,79.680,243,249,206
401832.210,5755903.720,79.680,236,245,205
401832.570,5755903.370,79.700,236,242,193
401832.530,5755903.460,79.730,220,228,175
401832.470,5755903.540,79.720,221,229,176
401832.420,5755903.620,79.710,233,241,186
401832.360,5755903.710,79.710,222,234,179
401832.650,5755903.410,79.640,233,234,189
401832.620,5755903.520,79.730,230,233,185
401832.590,5755903.620,79.790,232,237,186
401832.500,5755903.680,79.700,236,242,190
401832.450,5755903.760,79.700,225,234,180
401832.750,5755903.490,79.700,232,233,187
401832.730,5755903.600,79.800,236,236,190
401832.680,5755903.680,79.800,228,232,181
401832.620,5755903.770,79.800,225,232,179
401832.570,5755903.850,79.800,226,232,179
401832.860,5755903.570,79.760,228,230,183
401832.820,5755903.660,79.800,231,233,183
401832.770,5755903.750,79.810,228,233,182
401832.720,5755903.830,79.820,224,230,179
401832.660,5755903.910,79.810,223,228,177
401832.940,5755903.620,79.740,235,240,191
401832.900,5755903.710,79.780,239,242,194
401832.850,5755903.800,79.780,243,245,200
401832.790,5755903.880,79.780,242,243,200
401832.740,5755903.970,79.780,242,243,200
401833.030,5755903.680,79.730,230,236,187
401832.990,5755903.770,79.780,242,242,200
401832.930,5755903.850,79.760,250,249,213
401832.880,5755903.940,79.760,252,252,219
401832.830,5755904.020,79.770,247,248,215
401833.110,5755903.730,79.700,233,236,191
401833.070,5755903.820,79.740,237,235,196
401833.010,5755903.910,79.750,244,243,205
401832.970,5755904.000,79.770,244,245,206
401832.910,5755904.080,79.760,246,247,210
401833.250,5755903.710,79.700,231,236,191
401833.200,5755903.790,79.720,231,232,189
401833.160,5755903.880,79.750,235,235,195
401833.100,5755903.970,79.740,241,241,202
401833.050,5755904.050,79.760,233,237,190
401833.340,5755903.770,79.700,233,236,193
401833.290,5755903.850,79.710,242,242,203
401833.240,5755903.940,79.730,240,240,203
401833.190,5755904.020,79.730,241,240,204
401833.140,5755904.110,79.750,233,234,195
401833.420,5755903.830,79.700,230,230,187
401833.380,5755903.920,79.740,240,239,200
401833.350,5755904.020,79.790,241,240,204
401833.280,5755904.090,79.760,244,242,205
401833.220,5755904.160,79.720,239,239,203
401833.480,5755903.860,79.600,232,231,188
401833.470,5755903.980,79.730,231,228,190
401833.430,5755904.070,79.770,239,237,201
401833.370,5755904.150,79.770,241,239,203
401833.310,5755904.230,79.740,244,243,206
401833.560,5755903.910,79.580,231,231,187
401833.510,5755903.990,79.570,237,237,195
401833.450,5755904.080,79.570,245,244,205
401833.460,5755904.210,79.780,242,242,204
401833.410,5755904.290,79.780,246,244,207
401833.480,5755904.210,79.530,240,239,199
401833.480,5755904.340,79.740,239,238,198
401833.650,5755904.340,79.830,203,202,151
401833.580,5755904.410,79.780,215,213,164
401833.750,5755904.410,79.870,188,194,137
401833.800,5755904.440,79.740,209,225,163
401834.350,5755904.490,80.250,160,187,120
401834.300,5755904.570,80.240,172,197,135
401834.440,5755904.550,80.260,155,182,118
401834.380,5755904.630,80.250,179,208,145
401834.330,5755904.710,80.230,184,212,147
401834.650,5755904.470,80.340,152,180,114
401834.560,5755904.510,80.190,167,194,132
401834.490,5755904.580,80.140,168,194,134
401834.430,5755904.650,80.100,180,208,142
401834.380,5755904.730,80.100,180,208,142
401834.820,5755904.480,80.480,139,169,101
401834.730,5755904.530,80.350,149,177,115
401834.650,5755904.580,80.230,157,184,124
401834.600,5755904.660,80.220,156,180,119
401834.520,5755904.710,80.120,160,184,121
401834.460,5755904.790,80.120,158,183,120
401834.920,5755904.560,80.560,154,185,115
401834.830,5755904.600,80.410,159,188,125
401834.760,5755904.660,80.320,160,187,124
401834.680,5755904.720,80.240,163,189,127
401834.610,5755904.780,80.150,139,162,107
401834.560,5755904.860,80.150,137,161,103
401834.980,5755904.590,80.460,169,203,129
401834.930,5755904.680,80.480,178,208,135
401834.840,5755904.720,80.340,169,196,123
401834.770,5755904.780,80.270,184,210,141
401834.700,5755904.840,80.180,178,202,138
401834.650,5755904.920,80.170,177,201,140
401834.990,5755904.710,80.370,167,198,113
401834.930,5755904.780,80.370,177,207,126
401834.860,5755904.850,80.290,192,219,143
401834.790,5755904.910,80.210,182,209,141
401834.740,5755904.980,80.200,184,208,143
401835.050,5755904.740,80.280,146,175,100
401835.010,5755904.840,80.350,168,199,124
401834.950,5755904.910,80.320,166,197,126
401834.890,5755904.970,80.260,167,196,127
401835.110,5755904.780,80.210,133,161,97
401835.090,5755904.880,80.320,135,166,99
401835.010,5755904.940,80.230,133,164,100
401834.950,5755905.010,80.190,149,179,110
401835.180,5755904.820,80.140,135,165,99
401835.130,5755904.910,80.170,147,179,107
401835.100,5755905.000,80.250,146,176,111
401835.030,5755905.070,80.170,159,189,118
401835.250,5755904.870,80.120,122,152,89
401835.210,5755904.950,80.140,137,165,100
401835.210,5755905.080,80.340,135,165,103
401835.130,5755905.140,80.250,149,180,111
401835.330,5755904.920,80.110,112,144,78
401835.290,5755905.010,80.130,130,163,91
401835.300,5755905.150,80.390,145,177,103
401835.210,5755905.190,80.220,153,184,119
401835.470,5755905.030,80.340,125,158,95
401835.420,5755905.110,80.340,138,171,101
401835.590,5755904.990,80.270,88,120,69
401835.540,5755905.080,80.290,121,151,89
401835.690,5755904.950,80.170,145,176,110
401835.640,5755905.030,80.170,134,164,107
401835.600,5755905.110,80.200,137,165,105
401835.710,5755904.930,79.870,122,150,89
401835.660,5755905.010,79.880,112,140,83
401835.630,5755905.120,79.990,109,140,82
401835.770,5755904.970,79.810,90,118,68
401835.740,5755905.070,79.890,121,146,92
401835.700,5755905.160,79.940,111,141,84
401835.840,5755905.010,79.740,70,97,54
401835.810,5755905.110,79.820,88,113,66
401835.920,5755905.070,79.750,59,88,46
401835.880,5755905.160,79.780,53,82,42
401836.010,5755905.130,79.760,74,104,57
401835.960,5755905.210,79.750,67,98,55
401836.080,5755905.170,79.700,99,127,78
401836.020,5755905.250,79.690,75,104,60
401836.150,5755905.210,79.650,130,159,103
401836.100,5755905.290,79.660,92,120,74
401836.040,5755905.360,79.610,75,104,65
401836.000,5755905.470,79.700,79,105,62
401836.180,5755905.350,79.640,51,79,41
401836.110,5755905.420,79.590,44,72,40
401836.070,5755905.500,79.610,50,78,43
401836.030,5755905.590,79.670,72,100,58
401836.090,5755905.630,79.600,68,98,58
401836.150,5755905.670,79.500,99,130,84
401836.420,5755905.720,79.350,68,95,54
401836.360,5755905.790,79.320,72,97,53
401836.480,5755905.760,79.260,84,107,66
401836.720,5755905.440,79.030,79,109,49
401836.590,5755905.710,79.140,67,89,54
401836.550,5755905.800,79.200,56,80,46
401836.800,5755905.490,79.000,81,110,49
401836.710,5755905.540,78.840,74,101,49
401836.700,5755905.660,79.060,75,99,56
401836.650,5755905.740,79.030,68,90,57
401843.760,5755908.920,79.910,48,76,51
401843.720,5755909.000,79.960,56,87,56
401843.670,5755909.070,79.980,56,88,55
401843.620,5755909.150,80.010,53,86,52
401843.580,5755909.220,80.050,60,97,56
401843.530,5755909.290,80.050,62,97,56
401843.830,5755908.970,79.900,34,57,40
401843.780,5755909.020,79.700,47,75,51
401843.640,5755909.260,80.010,51,85,50
401843.600,5755909.340,80.080,48,81,46
401843.890,5755909.000,79.770,20,38,26
401843.850,5755909.070,79.740,30,51,35
401843.800,5755909.130,79.700,41,67,46
401843.750,5755909.240,80.000,48,80,51
401843.710,5755909.310,80.010,53,86,54
401843.660,5755909.390,80.090,44,75,45
401843.960,5755909.060,79.870,12,29,18
401843.910,5755909.120,79.830,12,28,17
401843.870,5755909.190,79.800,25,46,31
401843.820,5755909.280,80.000,42,70,46
401843.770,5755909.350,79.990,66,98,64
401843.730,5755909.430,80.030,64,97,61
401844.020,5755909.110,79.910,15,33,21
401843.970,5755909.170,79.890,12,29,18
401843.930,5755909.250,79.900,19,37,25
401843.880,5755909.330,79.990,31,53,36
401843.840,5755909.400,79.990,60,88,57
401843.790,5755909.470,80.020,71,102,68
401844.130,5755909.090,79.970,58,89,56
401844.080,5755909.160,79.950,29,54,35
401844.040,5755909.220,79.940,20,40,27
401843.990,5755909.300,79.960,13,30,19
401843.950,5755909.370,79.970,14,31,20
401843.900,5755909.440,79.980,28,49,33
401844.190,5755909.130,79.960,56,85,55
401844.140,5755909.200,79.980,49,79,52
401844.100,5755909.270,79.970,57,85,61
401844.050,5755909.340,79.970,31,53,38
401844.010,5755909.420,79.980,18,37,25
401843.960,5755909.490,79.970,19,39,25
401844.250,5755909.180,80.010,48,78,51
401844.210,5755909.250,79.990,45,74,50
401844.160,5755909.320,79.980,56,86,61
401844.120,5755909.390,79.970,53,81,60
401844.070,5755909.460,79.950,37,63,46
401844.030,5755909.530,79.990,24,44,31
401844.270,5755909.290,79.970,39,68,46
401844.230,5755909.360,79.960,42,72,51
401844.180,5755909.430,79.970,48,77,57
401844.140,5755909.500,79.940,46,74,56
401844.090,5755909.580,80.030,27,48,35
401844.330,5755909.350,80.110,36,65,46
401844.290,5755909.420,80.090,38,67,49
401844.240,5755909.490,80.080,42,71,53
401844.200,5755909.560,80.080,42,71,53
401844.150,5755909.630,80.090,42,69,53
401844.440,5755909.330,80.120,39,68,49
401844.390,5755909.390,80.090,39,68,50
401844.350,5755909.470,80.110,39,68,51
401844.300,5755909.540,80.100,40,68,52
401844.500,5755909.370,80.140,35,64,46
401844.450,5755909.440,80.120,34,63,46
401844.410,5755909.510,80.130,39,69,51
401844.370,5755909.580,80.100,41,70,53
401844.560,5755909.420,80.110,60,91,68
401844.520,5755909.490,80.130,48,79,60
401844.470,5755909.560,80.140,43,74,55
401844.430,5755909.630,80.140,44,75,57
401844.670,5755909.390,80.100,72,103,70
401844.620,5755909.460,80.110,78,110,79
401844.580,5755909.530,80.130,47,78,58
401844.530,5755909.600,80.140,46,77,57
401844.730,5755909.430,80.100,82,114,77
401844.690,5755909.500,80.110,62,95,64
401844.640,5755909.580,80.140,43,74,52
401844.600,5755909.650,80.150,45,76,55
401844.790,5755909.480,80.130,66,99,64
401844.750,5755909.550,80.140,50,82,54
401844.700,5755909.620,80.140,52,84,57
401844.850,5755909.530,80.160,63,97,65
401844.810,5755909.600,80.170,54,87,59
401844.760,5755909.670,80.170,52,84,58
401844.960,5755909.500,80.160,52,82,60
401844.910,5755909.570,80.150,59,91,62
401825.030,5755900.100,79.890,187,204,144
401825.120,5755900.150,79.880,196,216,150
401825.210,5755900.190,79.900,176,195,135
401825.290,5755900.240,79.880,169,183,131
401825.370,5755900.290,79.860,204,213,162
401825.450,5755900.340,79.850,200,215,168
401825.530,5755900.390,79.840,178,192,148
401825.640,5755900.440,79.880,208,219,172
401825.700,5755900.490,79.850,229,239,194
401825.790,5755900.540,79.840,227,235,194
401825.890,5755900.580,79.860,217,226,181
401825.980,5755900.630,79.860,224,232,186
401826.060,5755900.680,79.860,225,233,188
401826.160,5755900.730,79.870,235,244,201
401826.350,5755900.820,79.910,220,232,191
401826.540,5755900.910,79.920,196,202,164
401825.120,5755900.010,79.910,197,213,157
401825.190,5755900.060,79.890,177,193,138
401825.270,5755900.110,79.870,152,168,120
401825.340,5755900.160,79.860,157,167,124
401825.420,5755900.210,79.840,195,201,153
401825.510,5755900.260,79.840,213,226,178
401825.590,5755900.310,79.840,207,221,175
401825.700,5755900.350,79.870,221,231,186
401825.770,5755900.400,79.850,234,243,199
401825.850,5755900.460,79.820,223,233,189
401825.950,5755900.500,79.850,207,217,170
401826.040,5755900.550,79.850,218,227,181
401826.120,5755900.600,79.850,213,220,176
401826.220,5755900.640,79.860,231,238,196
401826.310,5755900.690,79.870,228,236,195
401826.390,5755900.740,79.860,233,240,204
401826.480,5755900.790,79.860,200,207,171
401826.550,5755900.840,79.840,202,204,163
401826.630,5755900.890,79.820,194,193,150
401826.710,5755900.940,79.800,194,186,141
401826.830,5755900.980,79.850,236,235,191
401826.900,5755901.030,79.840,220,230,185
401826.990,5755901.080,79.830,198,204,160
401827.080,5755901.130,79.840,220,222,174
401827.530,5755901.290,80.030,218,232,175
401827.540,5755901.360,79.880,214,229,173
401827.590,5755901.420,79.820,214,227,171
401827.650,5755901.470,79.760,205,216,163
401825.190,5755899.930,79.920,197,212,164
401825.260,5755899.980,79.890,160,176,131
401825.330,5755900.030,79.860,162,177,135
401825.400,5755900.080,79.840,163,174,132
401825.470,5755900.130,79.810,199,204,157
401825.560,5755900.180,79.820,222,229,181
401825.650,5755900.230,79.820,214,224,177
401825.760,5755900.270,79.860,234,241,200
401825.850,5755900.320,79.850,236,243,203
401825.920,5755900.370,79.830,217,230,186
401826.010,5755900.420,79.840,218,228,179
401826.090,5755900.470,79.830,227,235,190
401826.180,5755900.520,79.820,201,211,168
401826.250,5755900.570,79.800,208,217,172
401826.360,5755900.610,79.840,227,234,190
401826.450,5755900.660,79.830,231,237,201
401826.530,5755900.710,79.830,213,219,182
401826.630,5755900.750,79.850,204,206,164
401826.700,5755900.800,79.820,196,191,148
401826.770,5755900.850,79.800,216,213,168
401826.860,5755900.900,79.790,239,243,200
401826.960,5755900.950,79.820,226,236,189
401827.040,5755901.000,79.800,218,225,179
401827.630,5755901.270,79.930,216,229,182
401827.690,5755901.320,79.870,201,212,162
401827.720,5755901.390,79.770,215,224,171
401827.810,5755901.430,79.790,204,213,156
401827.860,5755901.490,79.720,220,232,172
401827.950,5755901.540,79.710,206,222,165
401828.030,5755901.590,79.700,198,214,158
401828.150,5755901.630,79.760,210,222,171
401828.240,5755901.670,79.770,212,225,175
401828.320,5755901.720,79.750,218,233,173
401828.440,5755901.760,79.810,232,245,181
401828.520,5755901.810,79.800,238,248,186
401828.650,5755901.850,79.880,236,245,184
401828.710,5755901.910,79.820,229,239,177
401828.780,5755901.960,79.790,216,230,165
401828.830,5755902.020,79.720,224,232,170
401828.910,5755902.070,79.710,230,221,171
401829.000,5755902.110,79.710,231,220,173
401829.080,5755902.170,79.700,219,208,159
401829.260,5755902.190,79.880,231,226,174
401829.350,5755902.230,79.890,225,230,177
401829.380,5755902.300,79.780,224,235,181
401829.440,5755902.360,79.710,227,238,187
401829.580,5755902.380,79.830,234,244,198
401829.670,5755902.430,79.820,234,244,200
401829.730,5755902.490,79.770,230,240,194
401825.180,5755899.800,79.930,214,225,175
401825.260,5755899.850,79.920,185,201,157
401825.330,5755899.900,79.890,136,153,112
401825.400,5755899.950,79.860,162,177,133
401825.460,5755900.000,79.830,170,183,141
401825.540,5755900.050,79.810,201,207,162
401825.630,5755900.100,79.820,221,228,177
401825.720,5755900.140,79.830,226,234,187
401825.820,5755900.190,79.850,234,242,200
401825.920,5755900.240,79.870,237,244,206
401826.010,5755900.280,79.860,219,230,190
401826.070,5755900.340,79.830,217,225,177
401826.150,5755900.380,79.810,221,230,178
401826.240,5755900.430,79.810,210,221,172
401826.310,5755900.480,79.790,217,228,178
401826.420,5755900.530,79.820,217,227,176
401826.500,5755900.580,79.820,227,234,194
401826.580,5755900.630,79.800,208,211,170
401826.690,5755900.670,79.840,202,200,156
401826.770,5755900.720,79.820,214,208,160
401826.840,5755900.770,79.790,240,240,193
401826.900,5755900.820,79.760,240,244,202
401827.000,5755900.870,79.780,229,237,190
401827.940,5755901.400,79.730,220,231,174
401828.020,5755901.450,79.720,204,216,164
401828.100,5755901.500,79.710,202,213,162
401828.240,5755901.540,79.810,220,229,180
401828.290,5755901.590,79.740,215,229,175
401828.430,5755901.630,79.830,215,233,168
401828.570,5755901.660,79.940,231,246,178
401828.620,5755901.720,79.860,232,244,178
401828.780,5755901.750,79.990,229,239,173
401828.800,5755901.810,79.880,220,233,166
401828.850,5755901.870,79.800,208,226,157
401828.910,5755901.930,79.750,218,226,160
401828.990,5755901.980,79.750,224,215,160
401829.080,5755902.020,79.740,229,212,164
401829.150,5755902.080,79.720,231,216,165
401829.320,5755902.100,79.880,231,225,173
401829.410,5755902.150,79.880,216,224,170
401829.430,5755902.220,79.750,218,231,175
401829.540,5755902.260,79.780,224,237,183
401829.650,5755902.300,79.840,223,235,184
401829.760,5755902.340,79.890,226,237,187
401829.800,5755902.400,79.790,225,236,187
401829.830,5755902.470,79.670,227,237,188
401829.910,5755902.520,79.670,214,224,174
401829.990,5755902.570,79.640,220,229,176
401830.080,5755902.610,79.660,213,221,167
401830.160,5755902.670,79.630,225,232,178
401830.240,5755902.720,79.610,230,238,187
401830.320,5755902.770,79.590,230,240,187
401830.410,5755902.820,79.610,227,236,182
401830.500,5755902.860,79.600,224,234,176
401830.580,5755902.910,79.600,230,240,180
401830.680,5755902.960,79.630,235,243,186
401830.790,5755903.000,79.670,232,240,187
401830.880,5755903.040,79.680,220,230,181
401830.970,5755903.090,79.680,212,222,173
401831.050,5755903.140,79.670,233,240,192
401834.700,5755904.960,80.100,186,211,142
401834.800,5755904.990,80.160,170,199,129
401834.910,5755905.020,80.230,148,178,112
401835.020,5755905.050,80.290,145,171,108
401835.090,5755905.110,80.250,155,182,115
401835.170,5755905.160,80.230,129,159,99
401825.330,5755899.770,79.930,139,158,115
401825.400,5755899.820,79.890,136,151,106
401825.460,5755899.870,79.860,186,199,149
401825.520,5755899.920,79.810,193,203,158
401825.590,5755899.970,79.780,213,221,175
401825.700,5755900.010,79.820,228,236,185
401825.800,5755900.060,79.840,233,243,195
401825.930,5755900.100,79.910,219,230,183
401826.000,5755900.150,79.880,235,242,201
401826.070,5755900.200,79.850,223,233,192
401826.140,5755900.250,79.830,215,224,175
401826.220,5755900.300,79.810,225,235,180
401826.300,5755900.350,79.810,228,238,185
401826.380,5755900.400,79.790,219,233,180
401826.480,5755900.450,79.810,217,229,178
401826.560,5755900.490,79.800,228,239,193
401826.630,5755900.540,79.780,200,205,165
401826.750,5755900.590,79.820,201,198,154
401826.830,5755900.640,79.810,222,219,169
401826.900,5755900.690,79.780,236,240,187
401826.970,5755900.740,79.760,236,242,194
401827.050,5755900.790,79.750,232,240,192
401828.040,5755901.310,79.810,214,228,171
401828.120,5755901.360,79.790,208,218,167
401828.200,5755901.410,79.770,210,217,168
401828.280,5755901.460,79.760,225,233,183
401828.340,5755901.510,79.700,214,228,172
401828.490,5755901.550,79.820,217,236,170
401828.560,5755901.600,79.800,225,243,174
401828.660,5755901.640,79.810,222,240,170
401828.800,5755901.670,79.920,216,230,162
401828.860,5755901.730,79.860,217,232,164
401828.920,5755901.790,79.820,212,228,163
401828.980,5755901.840,79.760,221,227,162
401829.070,5755901.890,79.760,222,217,156
401829.150,5755901.940,79.750,227,215,159
401829.220,5755901.990,79.720,227,213,161
401829.370,5755902.020,79.850,227,223,171
401829.470,5755902.060,79.870,218,226,173
401829.500,5755902.130,79.760,213,229,173
401829.640,5755902.160,79.860,214,230,173
401829.730,5755902.210,79.870,218,232,177
401829.820,5755902.250,79.880,223,236,185
401829.860,5755902.320,79.780,219,231,183
401829.940,5755902.370,79.760,225,234,188
401830.020,5755902.420,79.750,218,226,179
401830.070,5755902.480,79.680,223,228,178
401830.150,5755902.530,79.670,216,222,170
401830.220,5755902.580,79.630,224,230,180
401830.300,5755902.630,79.620,233,241,193
401830.380,5755902.680,79.600,228,239,184
401830.470,5755902.730,79.590,214,226,170
401830.550,5755902.780,79.580,216,225,170
401830.640,5755902.830,79.580,231,240,184
401830.730,5755902.870,79.600,236,244,191
401830.850,5755902.910,79.660,235,243,192
401830.930,5755902.960,79.660,217,228,176
401831.030,5755903.010,79.670,217,228,178
401831.100,5755903.060,79.650,234,242,192
401831.170,5755903.120,79.590,236,243,193
401831.170,5755903.200,79.410,243,248,203
401831.350,5755903.210,79.620,244,249,205
401831.440,5755903.260,79.610,249,252,208
401831.530,5755903.300,79.620,242,246,202
401831.630,5755903.350,79.640,208,211,167
401831.710,5755903.400,79.640,196,200,150
401831.800,5755903.440,79.640,220,227,173
401831.890,5755903.490,79.650,229,237,182
401831.980,5755903.540,79.650,236,244,192
401832.010,5755903.610,79.520,232,243,188
401832.100,5755903.660,79.540,232,243,186
401832.280,5755903.660,79.740,229,243,189
401832.370,5755903.710,79.750,214,232,174
401832.450,5755903.760,79.740,214,230,169
401832.540,5755903.810,79.730,209,222,163
401832.620,5755903.860,79.740,202,210,158
401832.650,5755903.930,79.590,224,229,178
401832.730,5755903.990,79.570,231,235,185
401832.910,5755904.080,79.590,222,228,177
401833.020,5755904.120,79.630,217,223,177
401833.120,5755904.160,79.670,220,221,181
401833.220,5755904.200,79.700,226,228,189
401833.270,5755904.260,79.610,235,235,194
401833.840,5755904.530,79.740,211,225,162
401833.970,5755904.550,79.860,184,211,144
401834.070,5755904.580,79.900,169,198,128
401834.190,5755904.610,79.970,171,200,131
401834.310,5755904.640,80.080,169,196,127
401834.390,5755904.690,80.040,171,197,131
401834.480,5755904.740,80.050,161,187,125
401834.560,5755904.790,80.040,126,152,96
401834.660,5755904.830,80.080,153,176,110
401834.760,5755904.860,80.130,184,208,139
401834.860,5755904.900,80.170,165,195,124
401834.970,5755904.930,80.230,153,183,119
401835.070,5755904.970,80.280,133,162,100
401835.140,5755905.020,80.240,150,177,109
401835.220,5755905.080,80.210,138,168,104
401835.260,5755905.160,80.090,131,162,100
401835.390,5755905.180,80.190,112,143,85
401835.460,5755905.230,80.160,117,148,90
401835.550,5755905.280,80.170,116,141,90
401835.610,5755905.340,80.100,102,132,81
401835.670,5755905.410,80.000,88,117,68
401835.750,5755905.460,79.990,110,139,83
401835.830,5755905.520,79.970,94,125,68
401826.700,5755900.460,79.780,204,210,173
401826.800,5755900.510,79.790,195,191,147
401826.880,5755900.560,79.780,212,209,159
401826.950,5755900.610,79.760,224,226,171
401827.050,5755900.650,79.780,229,235,184
401827.140,5755900.700,79.780,226,233,186
401828.190,5755901.270,79.800,211,222,168
401828.280,5755901.320,79.800,213,220,169
401828.360,5755901.370,79.780,229,235,185
401828.440,5755901.420,79.780,224,237,181
401828.520,5755901.470,79.750,224,241,178
401828.670,5755901.500,79.880,222,241,175
401828.770,5755901.550,79.890,213,233,165
401828.830,5755901.600,79.860,210,228,161
401828.900,5755901.650,79.820,211,224,159
401828.980,5755901.700,79.810,213,222,163
401829.040,5755901.760,79.750,213,218,155
401829.130,5755901.800,79.770,196,196,133
401829.220,5755901.850,79.760,207,203,141
401829.290,5755901.900,79.730,206,198,143
401829.360,5755901.960,79.690,215,211,159
401829.520,5755901.980,79.840,220,229,176
401829.600,5755902.030,79.840,204,222,164
401829.690,5755902.080,79.830,203,222,159
401829.780,5755902.130,79.840,219,234,176
401829.830,5755902.180,79.780,230,242,191
401829.930,5755902.230,79.800,231,240,196
401830.010,5755902.280,79.780,227,235,191
401830.080,5755902.330,79.750,220,227,183
401830.180,5755902.380,79.770,215,221,174
401830.260,5755902.420,79.770,218,222,172
401830.290,5755902.490,79.640,224,228,177
401830.380,5755902.540,79.640,225,230,179
401830.450,5755902.590,79.620,224,233,179
401830.540,5755902.640,79.610,202,214,159
401830.620,5755902.690,79.590,202,208,156
401830.710,5755902.740,79.600,232,239,187
401830.800,5755902.790,79.610,229,237,185
401830.910,5755902.830,79.660,226,235,182
401830.990,5755902.880,79.640,225,233,185
401831.100,5755902.920,79.690,220,229,180
401831.150,5755902.980,79.610,225,235,181
401831.240,5755903.030,79.610,235,242,189
401831.240,5755903.110,79.430,246,249,204
401831.410,5755903.120,79.610,249,252,211
401831.500,5755903.170,79.600,249,252,210
401831.590,5755903.220,79.610,243,246,204
401831.680,5755903.260,79.620,215,219,174
401831.760,5755903.310,79.620,221,226,175
401831.860,5755903.360,79.630,227,234,182
401831.950,5755903.400,79.640,234,241,188
401832.040,5755903.450,79.650,237,243,188
401832.140,5755903.490,79.680,236,245,190
401832.160,5755903.570,79.510,230,242,183
401832.250,5755903.620,79.540,226,239,181
401832.440,5755903.620,79.780,223,235,180
401832.500,5755903.680,79.710,222,232,177
401832.590,5755903.730,79.710,214,223,166
401832.630,5755903.800,79.600,208,215,160
401832.710,5755903.850,79.590,227,231,179
401832.800,5755903.890,79.590,237,238,190
