//X,Y,Z,R,G,B
401944.790,5755862.450,79.350,217,240,69
401944.740,5755862.560,79.330,208,232,65
401944.710,5755862.670,79.330,208,233,64
401944.970,5755862.280,79.320,206,230,56
401944.930,5755862.390,79.310,211,234,64
401944.900,5755862.500,79.310,206,231,59
401944.860,5755862.610,79.300,200,226,57
401945.170,5755862.250,79.360,195,224,53
401945.140,5755862.360,79.350,189,216,52
401945.100,5755862.470,79.350,192,219,52
401945.040,5755862.570,79.310,191,217,49
401945.040,5755862.710,79.360,191,218,52
401945.330,5755862.330,79.390,192,219,46
401945.300,5755862.440,79.380,197,222,50
401945.250,5755862.540,79.360,196,221,56
401945.220,5755862.660,79.360,198,223,54
401945.430,5755862.230,79.290,187,212,44
401945.410,5755862.350,79.300,182,207,45
401945.390,5755862.470,79.320,189,212,50
401945.340,5755862.580,79.290,189,211,57
401945.310,5755862.690,79.290,179,203,50
401945.580,5755862.310,79.300,169,194,48
401945.560,5755862.430,79.320,174,200,46
401945.540,5755862.550,79.330,169,196,38
401945.490,5755862.640,79.300,165,191,45
401945.600,5755862.700,79.270,173,200,51
401922.930,5755862.980,79.750,179,212,136
401922.350,5755863.420,79.870,160,194,112
401922.230,5755863.380,79.890,171,205,129
401922.120,5755863.290,79.880,158,193,122
401922.010,5755863.220,79.890,150,183,112
401921.930,5755863.080,79.820,145,180,102
401922.000,5755863.500,79.930,159,194,109
401921.900,5755863.400,79.910,160,193,118
401921.810,5755863.290,79.870,147,183,104
401919.170,5755863.100,79.900,154,186,114
401919.040,5755863.360,79.990,143,175,107
401918.950,5755863.250,79.950,156,191,111
401919.080,5755863.540,79.950,138,169,95
401918.970,5755863.470,79.950,137,168,96
401918.850,5755863.410,79.960,147,180,99
401918.740,5755863.340,79.960,147,179,95
401918.660,5755863.210,79.900,143,173,98
401918.750,5755863.590,79.980,139,172,97
401918.630,5755863.560,80.020,160,193,112
401918.550,5755863.410,79.950,149,181,103
401918.460,5755863.290,79.910,131,159,89
401918.300,5755863.340,80.030,139,166,99
401918.210,5755863.240,79.990,132,160,95
401918.040,5755863.300,80.120,154,182,114
401917.950,5755863.190,80.080,140,168,100
401917.830,5755863.160,80.130,158,189,117
401918.180,5755863.580,80.110,159,187,115
401918.070,5755863.500,80.100,142,170,102
401917.990,5755863.380,80.050,146,175,101
401917.890,5755863.290,80.040,148,176,106
401917.760,5755863.270,80.080,145,175,107
401917.670,5755863.170,80.050,136,165,107
401917.510,5755863.210,80.160,155,183,125
401917.370,5755863.230,80.240,150,179,107
401918.030,5755863.540,79.990,169,196,116
401917.920,5755863.490,80.010,159,185,112
401917.800,5755863.440,80.020,154,178,112
401917.670,5755863.430,80.090,133,159,97
401917.560,5755863.360,80.080,126,155,96
401917.410,5755863.400,80.190,137,167,106
401917.290,5755863.350,80.210,155,183,118
401917.200,5755863.260,80.190,135,167,98
401917.700,5755863.620,80.060,172,201,119
401917.560,5755863.630,80.140,154,180,112
401917.460,5755863.560,80.130,125,150,95
401917.300,5755863.600,80.240,120,149,89
401917.220,5755863.460,80.180,142,173,111
401917.130,5755863.350,80.140,133,165,99
401917.040,5755863.260,80.110,159,191,121
401916.910,5755863.240,80.170,160,192,115
401917.260,5755863.630,80.120,127,151,92
401917.150,5755863.580,80.140,134,161,105
401917.060,5755863.460,80.090,140,171,107
401916.920,5755863.490,80.190,149,184,109
401916.760,5755863.550,80.310,158,193,111
401916.690,5755863.390,80.230,166,201,117
401916.590,5755863.310,80.220,173,206,131
401916.490,5755863.220,80.210,167,200,123
401916.400,5755863.380,80.210,170,205,115
401916.280,5755863.330,80.240,163,199,108
401916.270,5755863.630,80.310,179,212,124
401916.220,5755863.440,80.190,166,199,111
401916.120,5755863.330,80.150,160,189,113
401944.860,5755862.670,79.470,208,229,130
401944.900,5755862.540,79.510,212,234,127
401944.520,5755862.720,79.560,205,226,119
401944.650,5755862.670,79.490,214,235,130
401944.700,5755862.550,79.510,213,233,132
401944.730,5755862.410,79.540,215,236,129
401944.800,5755862.300,79.540,220,238,125
401944.470,5755862.530,79.540,216,236,128
401944.610,5755862.500,79.440,218,237,132
401944.670,5755862.390,79.440,217,236,133
401944.240,5755862.690,79.480,208,228,121
401944.340,5755862.620,79.430,212,233,124
401944.470,5755862.570,79.360,208,231,121
401944.560,5755862.490,79.320,216,236,129
401944.620,5755862.380,79.330,215,232,133
401944.690,5755862.280,79.320,216,233,127
401944.260,5755862.750,79.270,200,220,120
401944.500,5755862.290,79.300,214,231,132
401942.930,5755862.790,79.530,190,214,123
401942.990,5755862.680,79.530,193,218,125
401943.070,5755862.590,79.510,186,212,113
401943.130,5755862.480,79.520,194,217,118
401942.860,5755862.770,79.430,184,208,109
401942.950,5755862.690,79.400,190,213,118
401943.030,5755862.600,79.380,189,213,109
401943.090,5755862.480,79.390,190,213,113
401943.130,5755862.350,79.420,192,214,115
401942.670,5755862.780,79.420,195,222,111
401942.730,5755862.670,79.430,190,215,117
401942.880,5755862.660,79.310,193,217,117
401942.950,5755862.560,79.300,193,216,109
401942.990,5755862.430,79.340,191,213,112
401943.040,5755862.310,79.350,195,216,121
401942.340,5755862.820,79.520,198,226,125
401942.430,5755862.740,79.480,197,224,119
401942.490,5755862.630,79.490,200,225,120
401942.570,5755862.540,79.470,197,221,124
401942.610,5755862.420,79.490,199,223,119
401942.730,5755862.370,79.420,201,224,117
401942.260,5755862.780,79.440,205,231,133
401942.320,5755862.670,79.450,201,226,130
401942.400,5755862.580,79.430,208,230,135
401942.450,5755862.470,79.440,206,227,131
401942.530,5755862.370,79.430,207,227,123
401942.170,5755862.730,79.380,214,234,145
401942.230,5755862.620,79.380,209,230,140
401942.300,5755862.520,79.370,215,233,145
401942.360,5755862.410,79.380,215,233,142
401942.450,5755862.330,79.350,211,229,128
401942.010,5755862.780,79.320,220,238,152
401942.090,5755862.700,79.300,211,231,145
401942.160,5755862.590,79.300,215,234,146
401942.230,5755862.500,79.280,220,237,152
401942.280,5755862.370,79.300,218,236,150
401941.830,5755862.810,79.300,226,243,161
401941.920,5755862.730,79.270,228,246,161
401942.000,5755862.650,79.240,219,240,152
401942.070,5755862.540,79.230,223,244,156
401942.130,5755862.430,79.240,229,246,161
401941.630,5755862.810,79.300,231,245,171
401941.730,5755862.750,79.250,225,242,162
401941.800,5755862.640,79.250,227,245,161
401941.900,5755862.580,79.200,229,247,161
401941.950,5755862.460,79.210,231,249,166
401942.020,5755862.350,79.210,234,250,169
401941.460,5755862.850,79.260,212,231,151
401941.520,5755862.730,79.280,226,239,161
401941.560,5755862.610,79.300,224,240,160
401941.680,5755862.560,79.220,225,243,159
401941.770,5755862.490,79.180,227,243,159
401941.840,5755862.380,79.180,232,245,165
401941.380,5755862.810,79.190,216,232,151
401941.430,5755862.680,79.210,228,239,162
401941.460,5755862.540,79.260,220,236,158
401941.490,5755862.400,79.300,216,234,155
401941.290,5755862.760,79.120,212,228,150
401941.340,5755862.630,79.150,212,227,149
401941.370,5755862.490,79.200,211,227,149
401940.720,5755862.680,79.500,192,213,131
401940.850,5755862.660,79.390,191,212,131
401940.910,5755862.550,79.400,195,215,136
401940.960,5755862.420,79.430,197,217,138
401940.530,5755862.870,79.400,201,223,141
401940.580,5755862.750,79.410,194,215,131
401940.630,5755862.630,79.440,190,209,125
401940.640,5755862.460,79.520,187,206,120
401940.720,5755862.380,79.490,190,209,125
401940.190,5755862.870,79.530,205,222,146
401940.260,5755862.780,79.510,201,218,145
401940.340,5755862.690,79.490,201,219,141
401940.540,5755862.760,79.280,197,214,130
401940.540,5755862.570,79.380,195,210,124
401940.540,5755862.400,79.470,197,211,126
401940.230,5755862.620,79.460,213,227,151
401940.440,5755862.700,79.230,212,225,143
401940.480,5755862.570,79.270,217,227,145
401935.480,5755862.920,79.170,169,196,95
401935.600,5755862.910,79.050,186,217,116
401935.650,5755862.790,79.070,196,226,132
401935.370,5755863.040,79.030,171,198,108
401935.460,5755862.980,78.970,183,211,110
401935.530,5755862.890,78.950,193,224,121
401935.280,5755862.980,78.970,175,205,108
401935.400,5755862.980,78.860,191,220,121
401935.460,5755862.870,78.860,194,225,121
401935.440,5755862.650,79.010,202,230,128
401935.200,5755862.960,78.890,189,217,111
401935.300,5755862.920,78.810,199,228,123
401935.320,5755862.750,78.900,192,224,117
401935.330,5755862.570,79.000,200,228,127
401935.040,5755862.990,78.860,186,217,107
401935.130,5755862.930,78.800,182,213,99
401935.210,5755862.860,78.760,188,221,102
401935.230,5755862.700,78.840,190,223,108
401934.880,5755863.020,78.820,195,227,119
401934.940,5755862.930,78.820,186,219,106
401935.010,5755862.840,78.800,183,214,97
401935.140,5755862.840,78.670,186,219,91
401935.220,5755862.760,78.640,193,225,105
401934.720,5755863.060,78.780,180,215,108
401934.770,5755862.940,78.800,194,227,114
401934.840,5755862.840,78.800,188,220,101
401934.910,5755862.770,78.770,190,220,106
401935.010,5755862.720,78.700,193,221,106
401935.090,5755862.660,78.650,205,226,121
401935.160,5755862.570,78.640,220,237,145
401934.530,5755863.040,78.810,178,213,104
401934.640,5755863.020,78.720,186,219,109
401934.720,5755862.940,78.680,196,228,115
401934.790,5755862.870,78.650,193,226,107
401934.830,5755862.730,78.700,191,222,104
401934.880,5755862.610,78.720,196,222,116
401934.480,5755863.050,78.680,190,221,114
401934.540,5755862.960,78.670,194,225,114
401934.600,5755862.860,78.670,196,226,111
401934.660,5755862.760,78.670,194,225,106
401934.730,5755862.670,78.660,195,225,102
401934.380,5755863.000,78.630,198,224,119
401934.460,5755862.920,78.600,204,228,125
401934.520,5755862.820,78.600,204,226,121
401934.580,5755862.710,78.610,209,231,122
401934.630,5755862.600,78.630,204,230,113
401934.230,5755863.050,78.580,185,212,96
401934.300,5755862.960,78.560,207,226,127
401934.370,5755862.860,78.560,209,228,137
401934.430,5755862.760,78.560,207,226,130
401934.480,5755862.640,78.580,206,228,121
401934.150,5755863.000,78.520,193,221,109
401934.200,5755862.890,78.530,201,225,123
401934.260,5755862.790,78.530,204,227,131
401934.280,5755862.620,78.620,208,230,130
401934.390,5755862.590,78.530,198,221,108
401933.970,5755863.010,78.510,197,230,121
401934.030,5755862.910,78.510,199,229,122
401934.110,5755862.830,78.480,204,231,130
401934.160,5755862.720,78.500,209,235,136
401934.230,5755862.630,78.490,210,236,130
401933.940,5755863.060,78.330,204,235,124
401934.000,5755862.950,78.340,208,236,130
401934.060,5755862.850,78.350,208,235,134
401934.110,5755862.740,78.350,209,236,136
401934.180,5755862.640,78.350,207,234,131
401934.060,5755863.060,77.830,229,246,147
401934.080,5755863.000,77.650,222,244,142
401934.160,5755862.910,77.630,218,243,137
401933.930,5755863.060,77.590,197,219,127
401934.000,5755862.950,77.590,206,231,130
401934.060,5755862.850,77.590,217,242,135
401933.850,5755863.020,77.510,188,203,121
401933.920,5755862.930,77.500,192,215,120
401933.560,5755863.040,77.630,143,149,102
401933.170,5755863.080,77.850,238,221,164
401933.260,5755863.040,77.770,220,207,156
401933.340,5755862.970,77.730,218,206,156
401933.390,5755862.860,77.750,210,200,148
401933.470,5755862.770,77.720,219,212,153
401933.550,5755862.700,77.680,226,222,157
401933.040,5755862.970,77.870,204,180,128
401933.100,5755862.860,77.880,172,152,108
401933.180,5755862.790,77.840,198,176,129
401933.250,5755862.700,77.820,237,220,164
401933.320,5755862.630,77.790,236,221,166
401932.930,5755863.100,77.710,189,163,113
401932.940,5755862.900,77.830,174,151,102
401933.000,5755862.790,77.850,175,152,103
401933.060,5755862.680,77.860,191,166,117
401932.870,5755863.090,77.600,180,154,105
401932.980,5755863.080,77.490,173,150,100
401932.890,5755862.710,77.830,173,150,98
401932.700,5755863.120,77.570,175,152,106
401932.710,5755862.920,77.710,179,153,102
401932.730,5755862.740,77.800,184,161,108
401932.800,5755862.650,77.790,167,147,100
401932.420,5755863.150,77.680,124,115,93
401932.590,5755863.040,77.560,169,149,105
401932.640,5755862.910,77.600,169,148,101
401932.660,5755862.720,77.710,173,153,105
401932.200,5755863.060,77.800,77,83,80
401932.250,5755862.930,77.830,98,97,85
401932.410,5755863.030,77.580,131,121,94
401932.470,5755862.910,77.600,157,141,103
401932.510,5755862.770,77.650,158,141,100
401932.100,5755862.980,77.780,66,75,76
401932.180,5755862.920,77.740,77,82,80
401932.250,5755862.840,77.700,96,95,84
401932.340,5755862.780,77.640,128,119,93
401932.400,5755862.690,77.640,135,123,92
401932.090,5755862.880,77.660,69,77,78
401932.180,5755862.820,77.610,81,85,81
401932.250,5755862.740,77.580,99,98,84
401932.320,5755862.660,77.550,113,108,89
401932.070,5755862.730,77.600,75,82,80
401932.150,5755862.670,77.550,84,88,82
401921.400,5755863.170,79.950,155,187,120
401921.450,5755863.110,79.910,154,187,121
401921.320,5755863.140,79.880,155,185,116
401921.380,5755863.110,79.810,149,181,116
401921.200,5755863.250,79.750,152,184,110
401921.260,5755863.250,79.650,170,199,128
401921.310,5755863.180,79.620,161,194,128
401921.060,5755863.220,79.790,125,155,83
401921.110,5755863.170,79.750,150,178,101
401921.170,5755863.130,79.690,143,175,100
401921.230,5755863.070,79.650,143,176,105
401920.870,5755863.290,79.820,171,201,111
401920.920,5755863.200,79.830,168,199,116
401920.970,5755863.110,79.830,125,152,85
401921.030,5755863.040,79.800,145,170,101
401920.780,5755863.140,79.900,172,199,119
401920.830,5755863.060,79.890,170,201,124
401920.640,5755863.090,79.970,151,175,105
401935.390,5755863.040,78.910,183,214,116
401935.460,5755862.930,78.900,195,227,122
401935.460,5755862.730,79.000,197,229,125
401935.290,5755862.970,78.860,196,225,121
401935.360,5755862.880,78.840,202,234,127
401935.360,5755862.680,78.940,196,228,121
401935.440,5755862.580,78.920,203,234,131
401935.240,5755862.980,78.730,190,222,104
401935.300,5755862.870,78.730,196,229,112
401935.290,5755862.650,78.840,199,233,122
401934.990,5755862.920,78.800,191,225,108
401935.070,5755862.830,78.770,189,221,99
401935.200,5755862.810,78.680,192,225,102
401935.260,5755862.690,78.690,196,230,118
401935.320,5755862.570,78.700,197,230,124
401934.860,5755862.820,78.790,190,223,106
401935.020,5755862.830,78.650,195,226,110
401935.070,5755862.710,78.670,191,218,104
401935.130,5755862.580,78.690,208,229,130
401934.690,5755862.860,78.740,198,231,118
401934.790,5755862.800,78.690,198,231,113
401934.870,5755862.700,78.670,201,230,115
401934.910,5755862.570,78.700,203,225,125
401934.580,5755862.790,78.700,201,229,113
401934.660,5755862.700,78.680,203,232,112
401934.720,5755862.590,78.680,209,234,113
401934.400,5755862.820,78.670,208,232,134
401934.450,5755862.690,78.690,209,229,124
401934.220,5755862.840,78.640,204,228,128
401934.260,5755862.710,78.670,209,233,137
401934.340,5755862.620,78.650,206,230,125
401934.040,5755862.880,78.610,204,233,126
401933.990,5755863.100,78.370,203,235,130
401934.050,5755862.980,78.380,212,241,138
401934.070,5755862.810,78.450,214,241,142
401934.150,5755862.710,78.430,216,243,143
401934.240,5755862.640,78.390,212,238,137
401934.030,5755863.030,78.210,222,247,144
401934.090,5755862.910,78.220,220,244,144
401934.160,5755862.810,78.200,217,242,142
401934.230,5755862.710,78.200,214,239,141
401934.000,5755863.080,78.030,235,251,151
401934.100,5755862.810,78.080,222,244,144
401934.170,5755862.700,78.090,225,245,147
401934.060,5755863.030,77.850,233,248,151
401933.990,5755863.020,77.740,233,248,154
401934.090,5755862.960,77.680,232,250,149
401933.950,5755863.050,77.590,205,222,135
401934.030,5755862.960,77.570,221,241,143
401934.100,5755862.850,77.560,217,240,141
401933.870,5755863.020,77.500,194,204,131
401933.960,5755862.940,77.460,182,199,118
401933.130,5755863.060,77.940,246,230,173
401933.230,5755863.010,77.870,246,235,179
401933.320,5755862.930,77.850,236,225,170
401933.420,5755862.870,77.780,191,182,133
401933.530,5755862.820,77.710,198,190,136
401932.960,5755863.120,77.880,183,163,119
401932.940,5755862.880,78.020,216,195,137
401933.020,5755862.780,78.010,189,173,121
401933.130,5755862.750,77.920,201,183,128
401933.230,5755862.680,77.870,231,212,155
401932.880,5755862.870,77.910,178,157,106
401932.970,5755862.800,77.870,152,134,84
401933.030,5755862.680,77.880,169,148,92
401932.870,5755862.950,77.710,176,155,107
401922.010,5755863.470,79.930,148,184,104
401921.150,5755863.490,79.800,184,214,137
401921.000,5755863.520,79.760,180,212,138
401921.030,5755863.320,79.870,159,195,123
401920.900,5755863.430,79.750,185,215,130
401920.930,5755863.230,79.860,165,200,124
401920.960,5755863.040,79.960,137,167,97
401920.790,5755863.280,79.810,181,208,122
401920.820,5755863.100,79.890,178,209,131
401920.670,5755863.140,79.860,180,198,135
401918.710,5755863.300,80.050,136,165,99
401918.400,5755863.570,80.050,144,173,100
401918.630,5755863.260,79.990,152,181,108
401918.680,5755863.130,80.030,149,179,107
401928.530,5755862.890,78.110,51,66,57
401928.480,5755863.010,78.120,54,69,60
401928.670,5755862.800,78.020,56,66,60
401928.620,5755862.920,78.030,55,66,60
401928.790,5755862.860,77.970,55,63,58
401928.770,5755863.010,78.020,55,63,58
401928.870,5755862.890,77.890,45,50,45
401928.800,5755863.010,77.880,45,50,45
401929.040,5755862.830,77.840,40,45,38
401929.010,5755862.970,77.870,38,43,37
401936.000,5755862.540,79.400,186,220,127
401936.200,5755862.680,79.490,181,216,122
401936.120,5755862.770,79.450,185,219,115
401936.460,5755862.580,79.520,181,213,131
401936.370,5755862.650,79.460,184,216,132
401936.270,5755862.700,79.400,184,215,126
401936.320,5755862.920,79.540,185,219,116
401936.250,5755863.010,79.520,195,227,131
401936.830,5755862.570,79.680,183,212,138
401936.700,5755862.610,79.590,183,214,135
401936.650,5755862.710,79.580,185,218,129
401936.570,5755862.800,79.550,190,221,135
401936.550,5755862.940,79.600,195,224,142
401936.450,5755863.000,79.530,186,218,120
401937.040,5755862.580,79.720,162,194,107
401936.970,5755862.660,79.690,176,207,125
401937.020,5755862.880,79.840,186,218,131
401936.970,5755862.990,79.850,194,226,143
401937.210,5755862.540,79.700,144,175,102
401937.200,5755862.690,79.760,169,199,118
401937.130,5755862.780,79.730,173,203,121
401937.150,5755862.960,79.840,178,211,128
401937.330,5755862.610,79.670,148,176,107
401937.320,5755862.760,79.740,172,202,123
401937.260,5755862.860,79.730,179,209,129
401937.460,5755862.530,79.600,182,207,139
401937.470,5755862.710,79.700,178,203,135
401937.440,5755862.840,79.730,172,203,128
401937.700,5755862.570,79.690,174,206,128
401937.640,5755862.670,79.670,175,205,122
401937.590,5755862.780,79.670,179,207,135
401937.620,5755862.970,79.800,161,194,118
401937.900,5755862.570,79.710,173,205,116
401937.870,5755862.700,79.740,170,202,112
401937.800,5755862.790,79.720,169,199,118
401937.750,5755862.900,79.720,167,197,123
401938.070,5755862.530,79.680,165,197,114
401938.020,5755862.640,79.690,155,187,104
401937.950,5755862.730,79.660,163,192,112
401937.890,5755862.820,79.650,162,190,117
401937.840,5755862.930,79.650,149,177,101
401938.270,5755862.520,79.710,155,188,92
401938.200,5755862.610,79.680,162,191,100
401938.130,5755862.700,79.650,161,189,104
401938.040,5755862.770,79.610,167,193,117
401937.980,5755862.860,79.590,166,192,119
401938.460,5755862.520,79.720,149,185,72
401938.410,5755862.630,79.730,148,181,73
401938.330,5755862.700,79.680,166,193,96
401938.280,5755862.800,79.680,169,196,108
401938.190,5755862.880,79.640,182,209,126
401938.650,5755862.500,79.730,148,182,76
401938.600,5755862.610,79.730,146,180,75
401938.550,5755862.710,79.730,153,184,79
401938.450,5755862.780,79.680,162,189,97
401938.390,5755862.870,79.660,165,194,108
401938.840,5755862.490,79.740,143,174,66
401938.770,5755862.580,79.730,154,185,74
401938.720,5755862.690,79.730,155,187,86
401938.670,5755862.790,79.730,155,185,87
401938.580,5755862.860,79.670,148,176,90
401938.500,5755862.940,79.630,155,183,98
401938.900,5755862.500,79.640,146,178,63
401938.860,5755862.620,79.660,154,183,77
401938.810,5755862.730,79.670,153,182,98
401938.760,5755862.840,79.680,151,179,90
401938.700,5755862.940,79.660,150,177,88
401938.980,5755862.520,79.560,135,166,64
401938.930,5755862.630,79.570,130,157,68
401938.880,5755862.750,79.580,141,167,93
401938.840,5755862.860,79.590,138,168,75
401939.050,5755862.550,79.480,125,151,70
401939.010,5755862.670,79.500,123,148,69
401938.960,5755862.770,79.490,122,151,73
401938.910,5755862.890,79.510,127,160,67
401939.180,5755862.460,79.390,135,154,84
401939.140,5755862.580,79.410,120,137,74
401939.080,5755862.690,79.410,126,143,78
401939.090,5755862.860,79.500,122,144,75
401938.970,5755862.890,79.400,114,140,67
401939.280,5755862.510,79.340,187,199,130
401939.230,5755862.630,79.360,177,187,122
401939.190,5755862.740,79.370,174,184,116
401939.120,5755862.830,79.350,158,169,106
401939.450,5755862.480,79.330,199,215,137
401939.400,5755862.590,79.340,196,211,130
401939.350,5755862.700,79.340,207,220,143
401939.300,5755862.810,79.340,208,221,146
401939.240,5755862.910,79.340,196,208,135
401939.640,5755862.480,79.350,204,225,129
401939.590,5755862.580,79.350,208,229,135
401939.540,5755862.690,79.360,204,224,132
401939.500,5755862.810,79.370,206,226,135
401939.440,5755862.910,79.370,200,221,134
401939.850,5755862.490,79.400,185,207,105
401939.780,5755862.570,79.370,189,209,108
401939.720,5755862.670,79.360,194,215,116
401939.670,5755862.780,79.360,197,218,121
401939.610,5755862.880,79.360,194,216,122
401940.000,5755862.440,79.360,172,185,106
401939.960,5755862.560,79.380,168,182,98
401939.920,5755862.670,79.390,170,183,101
401939.850,5755862.760,79.370,177,188,109
401939.790,5755862.850,79.350,188,202,119
401940.190,5755862.430,79.370,175,188,109
401940.100,5755862.490,79.310,181,193,120
401940.090,5755862.650,79.390,178,190,115
401940.050,5755862.760,79.400,176,191,117
401939.990,5755862.860,79.390,185,199,129
401940.380,5755862.430,79.400,181,203,109
401940.320,5755862.520,79.380,183,204,112
401940.250,5755862.600,79.350,187,207,123
401940.200,5755862.710,79.350,191,210,129
401940.170,5755862.850,79.400,187,209,126
401940.580,5755862.420,79.420,181,209,93
401940.510,5755862.520,79.410,179,207,95
401940.450,5755862.610,79.390,179,207,96
401940.370,5755862.680,79.350,186,211,106
401940.330,5755862.800,79.360,194,218,121
401940.880,5755862.390,79.550,162,190,95
401940.850,5755862.520,79.580,173,201,96
401940.750,5755862.570,79.520,167,197,86
401940.640,5755862.600,79.410,165,194,82
401940.590,5755862.700,79.410,167,197,78
401940.540,5755862.820,79.420,177,206,85
401940.970,5755862.430,79.490,134,162,81
401940.900,5755862.520,79.470,137,166,79
401940.850,5755862.620,79.460,139,169,73
401940.780,5755862.710,79.440,142,170,71
401940.670,5755862.740,79.340,141,171,65
401940.630,5755862.850,79.350,159,189,70
401941.040,5755862.450,79.400,111,136,66
401940.980,5755862.550,79.400,114,138,67
401940.940,5755862.660,79.410,122,145,66
401940.880,5755862.750,79.390,134,158,73
401940.770,5755862.790,79.300,134,160,70
401941.200,5755862.410,79.370,154,179,97
401941.140,5755862.510,79.370,142,163,93
401941.060,5755862.570,79.310,148,165,101
401941.030,5755862.710,79.350,143,158,97
401940.950,5755862.780,79.310,140,156,86
401940.860,5755862.840,79.250,156,173,102
401941.360,5755862.370,79.350,179,203,105
401941.290,5755862.460,79.330,183,203,109
401941.230,5755862.550,79.310,192,209,128
401941.160,5755862.620,79.270,188,205,128
401941.090,5755862.710,79.250,182,201,125
401941.060,5755862.840,79.280,173,190,112
401941.430,5755862.380,79.250,196,215,133
401941.380,5755862.500,79.270,196,210,133
401941.320,5755862.590,79.250,193,207,124
401941.250,5755862.670,79.230,198,213,126
401941.230,5755862.810,79.270,201,221,133
401941.610,5755862.370,79.270,186,207,110
401941.550,5755862.470,79.260,200,220,132
401941.510,5755862.580,79.270,212,231,141
401941.450,5755862.680,79.270,211,231,135
401941.390,5755862.770,79.250,201,221,126
401941.780,5755862.350,79.270,207,227,125
401941.730,5755862.460,79.270,197,219,111
401941.680,5755862.560,79.270,197,219,117
401941.620,5755862.660,79.260,192,216,115
401941.560,5755862.750,79.250,188,211,107
401941.490,5755862.830,79.220,185,207,103
401941.890,5755862.410,79.240,198,219,123
401941.830,5755862.510,79.230,206,228,133
401941.780,5755862.610,79.230,188,211,115
401941.720,5755862.710,79.220,173,196,102
401941.670,5755862.810,79.220,184,205,114
401942.150,5755862.340,79.310,209,229,123
401942.120,5755862.480,79.350,212,231,134
401942.070,5755862.580,79.350,205,226,134
401942.030,5755862.700,79.370,193,216,126
401941.960,5755862.770,79.330,190,211,121
401942.220,5755862.350,79.210,197,218,102
401942.230,5755862.550,79.340,192,211,105
401942.170,5755862.630,79.320,184,207,100
401942.110,5755862.720,79.290,189,209,112
401942.460,5755862.420,79.340,206,229,93
401942.420,5755862.550,79.370,204,227,92
401942.380,5755862.660,79.380,196,219,97
401942.340,5755862.770,79.400,188,213,81
401942.610,5755862.380,79.300,199,227,80
401942.570,5755862.490,79.320,195,223,71
401942.520,5755862.600,79.320,196,227,65
401942.520,5755862.770,79.420,191,221,71
401942.800,5755862.380,79.340,184,217,62
401942.750,5755862.480,79.340,183,214,67
401942.690,5755862.570,79.320,178,209,60
401942.640,5755862.680,79.330,182,215,54
401943.060,5755862.310,79.410,178,208,55
401943.000,5755862.400,79.390,174,205,59
401942.970,5755862.540,79.440,163,196,45
401942.900,5755862.620,79.410,174,208,54
401942.840,5755862.700,79.380,172,204,58
401943.180,5755862.400,79.420,172,200,53
401943.140,5755862.520,79.450,178,205,65
401943.090,5755862.620,79.440,168,198,54
401943.040,5755862.730,79.450,167,198,59
401943.340,5755862.370,79.410,169,198,50
401943.310,5755862.490,79.430,173,199,51
401943.280,5755862.630,79.480,190,216,76
401943.240,5755862.740,79.500,181,211,69
401943.480,5755862.310,79.350,161,192,41
401943.460,5755862.450,79.400,159,186,46
401943.420,5755862.580,79.440,169,195,44
401943.390,5755862.700,79.470,174,203,53
401943.640,5755862.280,79.330,171,200,48
401943.610,5755862.400,79.370,162,191,45
401943.570,5755862.520,79.390,165,193,41
401943.520,5755862.630,79.400,172,202,35
401943.490,5755862.760,79.430,163,194,44
401943.750,5755862.350,79.320,172,200,56
401943.720,5755862.480,79.360,169,199,47
401943.670,5755862.590,79.370,172,203,47
401943.610,5755862.680,79.350,164,196,46
401943.890,5755862.290,79.270,179,205,59
401943.850,5755862.410,79.290,180,208,48
401943.810,5755862.530,79.310,178,209,47
401943.770,5755862.640,79.330,168,199,51
401943.720,5755862.740,79.340,155,187,54
401944.010,5755862.370,79.260,181,205,76
401943.980,5755862.500,79.310,170,200,60
401943.930,5755862.610,79.320,169,197,57
401943.870,5755862.700,79.300,168,197,54
401944.130,5755862.280,79.170,192,215,93
401944.090,5755862.400,79.200,195,216,100
401944.060,5755862.530,79.240,182,206,91
401944.030,5755862.660,79.280,175,200,94
401943.970,5755862.750,79.250,176,203,88
401944.210,5755862.300,79.090,206,230,88
401944.190,5755862.450,79.160,208,232,88
401944.150,5755862.580,79.190,206,230,86
401944.150,5755862.750,79.290,200,226,92
401944.410,5755862.330,79.160,209,233,68
401944.330,5755862.390,79.100,206,232,67
401944.280,5755862.500,79.110,207,231,70
401944.260,5755862.650,79.180,209,234,70
401944.770,5755862.270,79.370,214,234,74
401944.710,5755862.350,79.350,207,230,64
401944.680,5755862.470,79.380,204,227,72
401944.620,5755862.560,79.360,200,224,63
401944.570,5755862.670,79.380,200,227,58
401944.950,5755862.260,79.400,210,234,59
401944.890,5755862.360,79.390,209,232,69
401944.830,5755862.450,79.370,206,232,62
401944.790,5755862.550,79.370,202,228,59
401944.730,5755862.650,79.370,200,226,57
401945.030,5755862.290,79.320,192,219,54
401944.970,5755862.380,79.300,197,224,58
401944.910,5755862.470,79.290,197,224,55
401944.880,5755862.590,79.320,193,220,55
401944.830,5755862.690,79.330,197,224,66
401945.200,5755862.280,79.340,188,214,50
401945.140,5755862.370,79.320,184,211,47
401945.080,5755862.460,79.310,183,211,42
401945.030,5755862.550,79.290,184,210,45
401944.980,5755862.650,79.300,185,212,57
401945.440,5755862.220,79.410,186,213,50
401945.380,5755862.300,79.390,178,205,41
401945.330,5755862.400,79.390,192,217,56
401945.270,5755862.470,79.350,192,217,56
401945.210,5755862.570,79.340,190,217,49
401945.150,5755862.640,79.310,192,220,50
401945.510,5755862.230,79.320,182,209,51
401945.470,5755862.340,79.340,172,199,45
401945.430,5755862.450,79.350,186,210,66
401945.370,5755862.540,79.330,192,215,71
401945.320,5755862.630,79.320,185,212,50
401945.550,5755862.540,79.370,168,195,48
401945.490,5755862.630,79.350,163,188,49
401945.580,5755862.670,79.300,169,195,49
401945.570,5755862.650,79.310,195,210,119
401945.410,5755862.670,79.300,199,217,112
401945.470,5755862.580,79.310,191,211,108
401945.530,5755862.490,79.280,176,196,97
401945.200,5755862.620,79.430,191,212,102
401945.270,5755862.540,79.420,195,215,109
401945.340,5755862.470,79.380,193,214,110
401945.080,5755862.680,79.350,192,214,118
401945.130,5755862.580,79.370,188,209,114
401945.180,5755862.490,79.370,185,205,112
401945.250,5755862.410,79.350,186,206,113
401944.920,5755862.690,79.370,188,208,116
401944.970,5755862.600,79.380,189,209,115
401945.020,5755862.500,79.390,187,208,109
401945.080,5755862.410,79.380,183,204,102
401945.150,5755862.340,79.340,179,200,107
401945.200,5755862.240,79.360,175,194,101
401944.770,5755862.720,79.350,194,212,113
401944.810,5755862.610,79.380,192,211,120
401944.860,5755862.520,79.390,197,215,115
401944.930,5755862.440,79.370,200,218,108
401944.980,5755862.340,79.370,195,214,101
401945.040,5755862.250,79.360,189,208,103
401944.590,5755862.720,79.390,196,212,112
401944.640,5755862.610,79.410,206,222,123
401944.710,5755862.540,79.370,197,214,122
401944.770,5755862.450,79.370,202,218,121
401944.830,5755862.360,79.370,200,216,113
401944.880,5755862.270,79.370,202,219,109
401944.430,5755862.730,79.400,195,212,108
401944.510,5755862.670,79.350,195,212,113
401944.560,5755862.560,79.370,203,220,115
401944.600,5755862.460,79.400,201,217,119
401944.700,5755862.250,79.440,200,215,117
401944.280,5755862.740,79.410,198,216,113
401944.350,5755862.680,79.350,201,218,118
401944.210,5755862.720,79.310,186,204,106
401944.250,5755862.600,79.360,199,215,119
401944.040,5755862.720,79.350,179,203,108
401944.090,5755862.610,79.370,187,206,112
401944.150,5755862.530,79.360,201,216,123
401943.870,5755862.710,79.410,170,192,100
401943.910,5755862.600,79.440,173,194,101
401943.950,5755862.480,79.490,174,193,102
401944.050,5755862.460,79.360,182,200,110
401943.710,5755862.710,79.430,169,191,105
401943.760,5755862.620,79.440,164,184,98
401943.800,5755862.500,79.490,178,196,106
401943.900,5755862.470,79.360,179,199,102
401943.940,5755862.360,79.400,179,199,104
401944.020,5755862.310,79.320,182,199,109
401943.550,5755862.730,79.430,168,189,106
401943.620,5755862.660,79.400,179,201,106
401943.690,5755862.580,79.360,176,196,100
401943.650,5755862.360,79.620,186,202,118
401943.800,5755862.410,79.350,178,198,109
401943.830,5755862.280,79.420,177,197,100
401943.380,5755862.720,79.490,174,194,105
401943.440,5755862.640,79.460,174,194,107
401943.510,5755862.560,79.440,181,202,108
401943.500,5755862.380,79.620,179,199,105
401943.560,5755862.300,79.610,187,204,121
401943.220,5755862.720,79.520,180,203,113
401943.270,5755862.620,79.540,187,208,114
401943.320,5755862.530,79.530,174,194,102
401943.380,5755862.450,79.520,181,197,112
401943.410,5755862.320,79.600,175,191,108
401942.880,5755862.790,79.760,169,190,113
401943.060,5755862.720,79.550,161,185,100
401943.120,5755862.640,79.540,164,186,106
401943.180,5755862.560,79.520,175,196,109
401943.230,5755862.460,79.540,176,195,102
401943.270,5755862.350,79.580,179,195,105
401942.820,5755862.770,79.660,161,186,96
401942.930,5755862.770,79.490,168,193,101
401942.990,5755862.700,79.460,172,196,105
401943.050,5755862.620,79.440,160,181,95
401943.120,5755862.550,79.400,167,185,96
401943.130,5755862.380,79.540,173,192,100
401943.210,5755862.330,79.470,179,197,98
401942.650,5755862.770,79.700,168,194,90
401942.750,5755862.740,79.580,167,192,94
401942.810,5755862.670,79.550,161,184,97
401942.880,5755862.590,79.520,173,195,108
401942.940,5755862.520,79.480,168,190,93
401943.010,5755862.460,79.440,167,189,90
401943.060,5755862.350,79.470,169,189,95
401942.500,5755862.790,79.700,171,196,99
401942.550,5755862.690,79.710,175,200,94
401942.670,5755862.700,79.520,174,198,97
401942.740,5755862.640,79.470,170,192,106
401942.800,5755862.550,79.450,169,191,104
401942.870,5755862.480,79.420,167,191,92
401942.920,5755862.390,79.430,167,190,92
401942.980,5755862.310,79.410,173,191,103
401942.440,5755862.760,79.610,178,200,110
401942.500,5755862.680,79.590,176,201,101
401942.560,5755862.600,79.570,176,201,102
401942.670,5755862.600,79.400,173,197,107
401942.730,5755862.510,79.390,179,201,108
401942.780,5755862.430,79.390,181,203,101
401942.840,5755862.340,79.390,174,196,97
401942.320,5755862.820,79.520,183,206,116
401942.360,5755862.720,79.550,177,201,108
401942.420,5755862.640,79.540,183,207,109
401942.480,5755862.550,79.530,186,207,113
401942.540,5755862.470,79.520,181,199,117
401942.600,5755862.390,79.500,187,204,117
401942.680,5755862.340,79.410,191,208,112
401942.230,5755862.760,79.500,189,214,118
401942.300,5755862.710,79.440,180,205,111
401942.360,5755862.630,79.410,191,212,120
401942.420,5755862.550,79.390,198,216,124
401942.470,5755862.440,79.420,192,208,121
401942.520,5755862.350,79.420,197,212,122
401942.180,5755862.760,79.360,199,219,127
401942.230,5755862.670,79.370,191,210,120
401942.290,5755862.590,79.350,197,214,127
401942.350,5755862.510,79.340,206,219,133
401942.400,5755862.420,79.340,202,216,128
401942.450,5755862.320,79.340,198,214,120
401942.030,5755862.790,79.340,200,218,131
401942.090,5755862.710,79.320,191,210,125
401942.150,5755862.630,79.300,189,208,122
401942.220,5755862.550,79.280,197,213,126
401942.280,5755862.480,79.250,203,216,130
401942.330,5755862.390,79.250,202,216,131
401941.880,5755862.800,79.360,196,218,130
401941.940,5755862.720,79.340,203,225,140
401942.000,5755862.640,79.310,191,213,130
401942.060,5755862.560,79.290,188,210,123
401942.130,5755862.500,79.230,198,218,126
401942.190,5755862.420,79.230,199,217,125
401942.250,5755862.330,79.220,195,212,126
401941.740,5755862.830,79.330,203,226,140
401941.790,5755862.740,79.330,204,227,141
401941.850,5755862.660,79.320,206,229,141
401941.910,5755862.580,79.300,198,220,132
401941.970,5755862.500,79.280,200,223,137
401942.030,5755862.420,79.260,214,235,146
401942.100,5755862.360,79.200,219,239,146
401941.660,5755862.780,79.290,205,228,143
401941.700,5755862.670,79.330,192,216,131
401941.750,5755862.580,79.340,197,221,131
401941.810,5755862.500,79.310,209,232,138
401941.870,5755862.420,79.300,212,233,143
401941.930,5755862.340,79.270,213,232,145
401941.500,5755862.780,79.320,206,225,140
401941.550,5755862.690,79.330,205,224,141
401941.610,5755862.600,79.330,203,224,139
401941.670,5755862.520,79.310,208,228,139
401941.730,5755862.440,79.280,210,231,139
401941.780,5755862.350,79.280,207,227,139
401941.360,5755862.800,79.310,195,214,135
401941.410,5755862.720,79.290,207,220,141
401941.470,5755862.640,79.280,213,227,147
401941.510,5755862.530,79.330,208,226,144
401941.570,5755862.440,79.320,209,226,143
401941.630,5755862.360,79.300,206,222,138
401941.200,5755862.810,79.330,190,207,131
401941.260,5755862.730,79.320,191,208,127
401941.320,5755862.640,79.310,207,218,137
401941.380,5755862.560,79.290,208,221,142
401941.440,5755862.480,79.270,201,220,140
401940.960,5755862.840,79.480,177,194,124
401941.020,5755862.760,79.460,178,193,118
401941.080,5755862.680,79.440,181,197,120
401941.140,5755862.610,79.420,187,204,123
401941.190,5755862.510,79.430,198,210,131
401941.300,5755862.530,79.220,194,206,129
401941.360,5755862.440,79.220,194,208,129
401940.810,5755862.840,79.510,177,195,119
401940.860,5755862.760,79.510,166,182,111
401940.920,5755862.680,79.480,166,181,108
401940.980,5755862.600,79.470,160,177,102
401941.040,5755862.510,79.460,180,197,121
401941.080,5755862.400,79.510,174,187,113
401940.660,5755862.860,79.510,191,212,129
401940.720,5755862.780,79.480,172,192,109
401940.760,5755862.660,79.550,157,175,100
401940.820,5755862.590,79.510,166,186,112
401940.890,5755862.520,79.470,163,184,110
401940.940,5755862.430,79.490,169,187,117
401940.520,5755862.880,79.500,188,207,127
401940.580,5755862.800,79.490,184,205,123
401940.640,5755862.730,79.450,175,196,110
401940.700,5755862.650,79.430,166,186,104
401940.740,5755862.550,79.470,159,180,100
401940.800,5755862.460,79.470,176,195,117
401940.450,5755862.860,79.400,189,206,127
401940.500,5755862.760,79.420,186,202,125
401940.570,5755862.690,79.380,177,196,112
401940.620,5755862.610,79.380,180,197,114
401940.670,5755862.510,79.400,168,184,103
401940.290,5755862.830,79.490,172,194,118
401940.350,5755862.750,79.470,175,192,116
401940.400,5755862.670,79.460,183,198,122
401940.480,5755862.640,79.350,184,199,118
401940.530,5755862.540,79.370,181,195,114
401940.570,5755862.410,79.450,179,192,110
401940.160,5755862.870,79.440,194,211,138
401940.210,5755862.780,79.460,188,204,132
401940.290,5755862.740,79.350,188,205,128
401940.350,5755862.680,79.300,193,210,129
401940.360,5755862.500,79.490,195,209,122
401940.410,5755862.410,79.500,192,203,121
401940.070,5755862.810,79.420,194,209,139
401940.130,5755862.740,79.390,193,205,135
401940.190,5755862.660,79.380,192,206,133
401940.250,5755862.580,79.360,192,207,129
401940.300,5755862.500,79.360,199,211,127
401940.350,5755862.400,79.370,198,210,130
401939.930,5755862.840,79.400,193,207,140
401939.990,5755862.760,79.390,189,201,134
401940.050,5755862.680,79.380,190,202,131
401940.100,5755862.600,79.370,206,217,145
401940.140,5755862.470,79.450,202,214,140
401939.710,5755862.890,79.510,177,194,117
401939.770,5755862.810,79.500,182,197,121
401939.860,5755862.800,79.350,184,197,124
401939.910,5755862.700,79.360,176,189,118
401939.970,5755862.650,79.300,178,193,117
401940.020,5755862.530,79.350,184,198,119
401940.060,5755862.420,79.400,186,200,119
401939.570,5755862.910,79.500,179,196,118
401939.630,5755862.850,79.450,178,195,114
401939.690,5755862.760,79.460,181,196,115
401939.740,5755862.680,79.440,190,205,123
401939.800,5755862.600,79.420,188,203,122
401939.860,5755862.530,79.390,185,200,121
401939.930,5755862.460,79.350,189,203,122
401939.560,5755862.800,79.410,194,210,130
401939.620,5755862.730,79.380,193,209,125
401939.660,5755862.610,79.440,202,216,132
401939.710,5755862.530,79.420,208,218,137
401939.770,5755862.460,79.380,204,215,134
401939.440,5755862.880,79.290,193,206,134
401939.460,5755862.710,79.450,187,202,124
401939.530,5755862.650,79.390,193,209,127
401939.570,5755862.540,79.440,192,208,122
401939.630,5755862.470,79.410,199,210,127
401939.310,5755862.910,79.260,180,189,121
401939.360,5755862.830,79.240,193,205,129
401939.410,5755862.740,79.260,191,206,128
401939.450,5755862.620,79.330,193,210,129
401939.520,5755862.570,79.250,185,202,118
401939.570,5755862.460,79.280,185,201,115
401939.280,5755862.780,79.210,179,191,113
401939.340,5755862.690,79.200,173,187,112
401939.390,5755862.610,79.190,184,199,121
401939.470,5755862.570,79.100,189,203,124
401939.500,5755862.430,79.210,193,206,127
401939.250,5755862.630,79.200,178,188,114
401939.310,5755862.550,79.180,187,199,128
401939.370,5755862.500,79.110,180,194,123
401939.210,5755862.470,79.200,162,178,105
401935.260,5755863.020,79.080,154,185,99
401935.320,5755863.000,78.960,156,184,92
401935.190,5755863.010,78.980,176,206,110
401935.250,5755862.970,78.880,166,194,98
401935.060,5755863.060,78.910,171,199,100
401935.120,5755863.000,78.860,178,208,99
401935.180,5755862.940,78.810,175,204,97
401934.990,5755863.040,78.810,169,201,94
401935.050,5755862.980,78.760,164,197,84
401935.090,5755862.830,78.890,163,197,75
401935.150,5755862.770,78.830,170,206,78
401934.860,5755863.070,78.790,167,198,91
401934.910,5755862.970,78.820,174,207,98
401934.960,5755862.860,78.870,164,196,81
401935.010,5755862.790,78.840,162,194,69
401935.070,5755862.730,78.780,163,198,63
401935.120,5755862.650,78.770,164,200,75
401934.790,5755863.030,78.720,163,196,85
401934.830,5755862.910,78.790,168,200,87
401934.890,5755862.860,78.730,164,193,81
401934.940,5755862.780,78.720,171,200,87
401935.000,5755862.700,78.700,175,205,82
401935.050,5755862.630,78.680,185,214,99
401934.720,5755863.040,78.570,169,201,82
401934.770,5755862.970,78.540,178,210,88
401934.820,5755862.860,78.600,171,200,87
401934.870,5755862.770,78.610,166,194,84
401934.920,5755862.680,78.600,182,209,104
401934.980,5755862.610,78.590,193,211,119
401934.590,5755863.050,78.580,172,205,90
401934.640,5755862.990,78.530,176,208,86
401934.700,5755862.930,78.480,173,204,78
401934.750,5755862.850,78.480,166,197,69
401934.800,5755862.740,78.530,163,191,73
401934.850,5755862.640,78.550,175,202,95
401934.520,5755863.050,78.450,185,214,97
401934.570,5755862.960,78.460,184,213,90
401934.620,5755862.880,78.450,186,215,87
401934.670,5755862.800,78.440,182,212,83
401934.730,5755862.720,78.430,177,205,78
401934.770,5755862.580,78.530,177,203,83
401934.440,5755863.030,78.360,201,222,115
401934.490,5755862.920,78.400,197,218,117
401934.540,5755862.820,78.420,198,220,112
401934.590,5755862.750,78.410,194,220,103
401934.640,5755862.600,78.540,187,210,85
401934.360,5755862.970,78.330,199,215,126
401934.420,5755862.890,78.320,193,213,121
401934.460,5755862.770,78.390,189,212,108
401934.520,5755862.700,78.380,181,208,92
401934.570,5755862.600,78.400,181,209,87
401934.230,5755863.000,78.300,189,211,117
401933.750,5755862.990,77.980,187,204,109
401933.620,5755863.060,77.880,146,159,92
401933.670,5755862.960,77.920,156,168,96
401933.720,5755862.830,77.990,170,186,97
401933.490,5755863.100,77.830,148,164,102
401933.550,5755863.010,77.840,126,137,87
401933.600,5755862.910,77.870,151,163,100
401933.650,5755862.800,77.920,170,188,103
401933.690,5755862.680,77.990,176,199,100
401933.360,5755863.120,77.830,195,203,128
401933.420,5755863.070,77.760,159,169,110
401933.470,5755862.970,77.800,137,145,97
401933.520,5755862.870,77.830,178,183,122
401933.570,5755862.780,77.840,201,210,133
401933.620,5755862.630,77.950,176,197,108
401933.170,5755863.090,78.090,215,196,149
401933.230,5755863.080,77.950,202,187,137
401933.280,5755863.030,77.870,197,190,134
401933.340,5755862.990,77.770,196,192,136
401933.390,5755862.870,77.850,185,188,133
401933.440,5755862.790,77.840,203,205,140
401933.490,5755862.700,77.840,220,222,148
401933.540,5755862.620,77.850,203,217,131
401933.150,5755863.010,77.960,227,205,156
401933.200,5755862.960,77.890,219,200,153
401933.260,5755862.900,77.830,218,200,151
401933.310,5755862.800,77.860,230,222,167
401933.360,5755862.700,77.900,207,209,148
401933.120,5755862.920,77.830,222,193,141
401933.170,5755862.810,77.880,236,211,156
401933.230,5755862.720,77.880,247,232,175
401933.280,5755862.640,77.870,213,208,152
401933.100,5755862.760,77.840,214,184,125
401933.150,5755862.670,77.840,229,205,143
401933.020,5755862.670,77.880,180,151,100
401932.190,5755862.880,77.830,76,77,65
401932.240,5755862.840,77.740,96,90,69
401932.290,5755862.760,77.740,125,112,79
401932.350,5755862.680,77.730,132,116,79
401932.110,5755862.900,77.650,67,70,62
401932.170,5755862.830,77.630,80,79,64
401932.220,5755862.740,77.630,90,87,67
401932.270,5755862.670,77.610,96,92,67
401932.090,5755862.760,77.630,88,87,68
401932.140,5755862.700,77.590,89,87,67
401931.040,5755863.190,77.530,53,62,63
401930.790,5755863.190,77.600,48,58,60
401930.840,5755863.080,77.640,49,59,61
401930.660,5755863.190,77.630,45,54,58
401930.720,5755863.070,77.710,47,56,60
401930.770,5755862.970,77.730,48,58,61
401930.490,5755863.190,77.840,45,56,60
401930.540,5755863.190,77.660,44,54,59
401930.590,5755863.110,77.650,44,54,59
401930.640,5755862.990,77.730,47,57,62
401930.470,5755863.030,77.850,44,56,62
401930.520,5755863.020,77.710,44,55,61
401930.570,5755862.940,77.700,45,56,63
401930.620,5755862.850,77.710,44,55,62
401930.440,5755862.940,77.730,40,53,60
401930.490,5755862.870,77.700,39,51,60
401930.540,5755862.800,77.680,38,50,59
401930.370,5755862.850,77.770,36,49,58
401930.420,5755862.790,77.740,35,48,58
401919.950,5755863.140,80.010,153,184,126
401920.160,5755863.120,79.900,134,165,110
401920.060,5755863.290,79.930,113,144,92
401919.920,5755863.380,79.910,115,144,78
401920.270,5755863.280,79.820,128,154,93
401920.150,5755863.390,79.810,127,152,76
401920.020,5755863.490,79.800,140,164,78
401920.380,5755863.420,79.730,166,191,114
401920.250,5755863.520,79.710,175,199,114
401936.880,5755862.580,79.800,183,214,142
401936.760,5755862.560,79.730,179,212,139
401937.180,5755862.610,79.790,173,206,131
401937.080,5755862.750,79.810,179,211,132
401936.970,5755862.790,79.780,191,222,140
401936.840,5755862.760,79.690,190,223,143
401937.280,5755862.900,79.800,191,222,153
401937.170,5755862.980,79.790,176,208,139
401945.120,5755862.420,79.500,197,219,121
401945.190,5755862.320,79.490,194,216,118
401945.260,5755862.230,79.480,203,222,122
401944.890,5755862.530,79.490,203,224,119
401944.940,5755862.420,79.500,202,223,112
401945.010,5755862.330,79.490,200,221,113
401944.760,5755862.430,79.510,209,228,124
401944.810,5755862.330,79.520,213,231,123
401944.720,5755862.270,79.480,213,231,125
401944.570,5755862.360,79.220,208,222,130
401944.500,5755862.330,79.130,211,225,129
401943.780,5755862.570,79.550,189,208,116
401943.820,5755862.440,79.600,192,213,119
401944.270,5755862.450,79.120,213,227,138
401943.520,5755862.480,79.700,192,213,116
401943.680,5755862.490,79.530,194,212,117
401943.700,5755862.350,79.610,195,215,122
401943.830,5755862.330,79.480,193,214,112
401944.080,5755862.450,79.140,198,217,117
401944.110,5755862.330,79.180,208,225,127
401943.500,5755862.510,79.540,196,215,120
401943.560,5755862.400,79.540,194,213,120
401943.900,5755862.290,79.250,199,218,112
401943.170,5755862.670,79.600,188,212,119
401943.190,5755862.530,79.670,192,213,116
401943.220,5755862.390,79.740,186,206,112
401943.380,5755862.410,79.550,191,210,119
401943.450,5755862.340,79.520,188,206,114
401942.900,5755862.730,79.680,179,204,112
401943.040,5755862.740,79.520,181,206,111
401943.050,5755862.580,79.610,177,201,111
401943.090,5755862.460,79.650,186,207,112
401943.150,5755862.370,79.640,188,209,112
401942.910,5755862.800,79.440,180,203,114
401942.960,5755862.690,79.460,183,206,119
401943.050,5755862.630,79.400,176,201,102
401943.040,5755862.460,79.520,179,202,105
401943.120,5755862.370,79.500,185,205,112
401943.200,5755862.300,79.460,187,209,101
401942.710,5755862.790,79.480,188,212,102
401942.810,5755862.730,79.420,182,204,112
401942.890,5755862.660,79.370,181,203,113
401942.950,5755862.570,79.370,180,204,103
401942.970,5755862.420,79.440,180,203,106
401943.020,5755862.320,79.450,185,203,116
401942.540,5755862.800,79.490,183,208,106
401942.600,5755862.710,79.470,190,214,109
401942.650,5755862.600,79.490,186,209,114
401942.720,5755862.510,79.480,185,208,111
401942.750,5755862.380,79.520,188,211,107
401942.860,5755862.340,79.430,187,207,107
401942.370,5755862.820,79.480,189,213,117
401942.440,5755862.740,79.440,190,214,114
401942.500,5755862.640,79.440,196,218,119
401942.570,5755862.560,79.420,193,213,121
401942.640,5755862.470,79.410,192,211,117
401942.690,5755862.360,79.420,198,217,117
401942.310,5755862.810,79.360,196,220,124
401942.370,5755862.700,79.370,195,218,124
401942.430,5755862.610,79.360,206,224,131
401942.490,5755862.510,79.360,202,220,128
401942.540,5755862.400,79.380,198,216,120
401942.220,5755862.740,79.330,205,225,136
401942.270,5755862.640,79.340,205,223,134
401942.320,5755862.530,79.360,208,224,135
401942.380,5755862.430,79.360,208,223,135
401942.450,5755862.340,79.340,206,222,127
401942.060,5755862.780,79.290,212,230,146
401942.120,5755862.680,79.290,200,220,134
401942.180,5755862.580,79.300,210,227,139
401942.240,5755862.490,79.290,212,226,140
401942.300,5755862.380,79.300,212,226,141
401941.790,5755862.830,79.380,211,230,145
401941.900,5755862.800,79.270,217,236,151
401941.970,5755862.720,79.260,215,235,148
401942.050,5755862.650,79.200,203,224,134
401942.070,5755862.500,79.290,214,235,145
401942.140,5755862.420,79.260,219,235,148
401941.750,5755862.840,79.240,216,234,153
401941.800,5755862.730,79.250,213,234,150
401941.870,5755862.660,79.220,217,238,151
